# .PCD v0.7 - Point Cloud Data file format
VERSION 0.7
FIELDS x y z intensity
SIZE 4 4 4 4
TYPE F F F F
COUNT 1 1 1 1
WIDTH 367
HEIGHT 1
VIEWPOINT 0 0 0 1 0 0 0
POINTS 367
DATA ascii
1.0753727 -1.1972084 -0.41703427 9
0.49199396 -0.85877371 -0.41761142 18
0.70461547 -0.66020542 -0.42731255 21.333334
0.80742168 -0.64280713 -0.42509267 14
1.3628981 -0.79721379 -0.41151771 9
0.75299269 -0.51854497 -0.42404687 17.636364
0.85442907 -0.49358535 -0.42256156 11
1.1068147 -0.52059585 -0.42141733 13
1.2864726 -0.46017852 -0.42207658 10
1.5927142 -0.59054816 -0.41985375 9
1.7083745 -0.50073397 -0.4141683 9
1.8395121 -0.48477054 -0.40970388 9
2.1312304 -0.5018971 -0.40127867 9.5
3.5864966 -0.55517113 -0.40394416 85
0.85261261 -0.31760374 -0.4236232 19.875
1.3797947 -0.31474423 -0.41779873 10
1.9719559 -0.29692048 -0.41283688 9
0.90484822 -0.14855447 -0.42132396 22
1.1165595 -0.036701448 -0.41846302 10
1.2506959 -0.050476745 -0.41412604 11.5
1.4173572 -0.06286864 -0.40819761 17
1.6705101 -0.077661127 -0.40833551 10
2.2998734 -0.14126146 -0.41692188 22
0.94456619 0.019468268 -0.4220461 31.666666
1.1041148 0.060674209 -0.41777369 23
1.5180391 0.17484157 -0.4068332 10
1.1057967 0.28363565 -0.41919109 19.714285
1.3425033 0.29175472 -0.41661873 9
1.5154209 0.3195121 -0.41034293 9.333333
2.1655171 0.37891722 -0.41079125 9
2.2471008 0.36455682 -0.40098625 9
2.4570191 0.22131827 -0.41495755 20
1.0735199 0.41129887 -0.41862637 26
1.6132652 0.41736794 -0.40877548 9
0.59642541 0.77920222 -0.42001715 10
0.74355906 0.66297609 -0.42052802 16.5
1.4861939 0.67136753 -0.4188154 15
1.1227363 0.81365973 -0.41152233 37
0.77088499 -1.1989729 -0.38177377 9
1.16371 -0.92375898 -0.36596927 9
2.5140257 -0.4091863 -0.38851148 9
3.5872478 -0.49338356 -0.38677603 33
3.6659174 -0.44154978 -0.3768484 21
2.3248425 -0.39873725 -0.39435098 9
3.6548762 -0.37856826 -0.35517791 10
1.8612814 -0.059314661 -0.39674193 9.5
2.5052884 -0.0074347351 -0.39722255 18
2.7142148 0.037806194 -0.38436875 12
3.3945441 0.037927885 -0.28854692 154.5
1.1735122 0.79267132 -0.34569055 38.5
1.2249835 0.77270818 -0.34368399 34.5
1.6937033 0.74138415 -0.38869631 10
1.1290716 0.87245959 -0.2320774 29.333334
0.3930313 -0.99944681 -0.12635809 101
0.98722667 -0.70878762 -0.19017297 36
1.0490648 -0.78537518 -0.19309914 33
1.1070212 0.73442757 -0.14455886 37
3.3746831 0.12134566 0.16968818 137
0.36128724 -1.0315012 0.25824139 76
0.42629865 -1.0081916 0.28918779 94
1.0332832 -1.0061362 0.29776281 83
1.2596384 -0.71507215 0.29119325 60
1.4381633 -0.75839162 0.3932749 8
3.3660996 0.16269149 0.20475008 122
3.1466475 0.28437468 0.27598163 158
3.229109 0.23779888 0.3924979 119
3.6752758 0.23971111 0.24681664 154
0.94906408 0.79538178 0.29095933 45.666668
1.3311946 0.79392231 0.28880194 43
3.2091851 0.69009173 0.35351825 6
0.91819853 0.80247986 0.2892566 75.5
1.5063456 0.87653661 0.39512739 56
1.4315678 -1.2822852 0.57453316 10
1.1309128 -0.73184723 0.49621552 19.6
1.2686599 -0.73555827 0.50469375 28
1.560679 0.74226415 0.53074914 11.5
1.6908684 0.7691465 0.53611827 20
3.1381588 0.70351893 0.40512735 8
0.41297585 0.99122465 0.5364787 90
1.0999877 0.85703218 0.41663831 53
1.4982047 0.87103909 0.55157804 25
0.36039862 1.0318321 0.51384574 93
3.9129696 0.37088934 0.72378451 7
1.5035367 0.83069777 0.60524738 6
1.5121943 1.0001956 0.63044906 25
3.9642618 1.1089342 0.62340146 6
4.0219841 1.2913196 0.6279335 20
3.9845223 1.4368773 0.6337688 12.5
4.4303851 -1.8286567 0.91631186 1
3.9472346 0.044798259 0.81918967 6
4.5919247 -0.0070328289 1.0324501 1
4.4156547 0.51644444 1.0209084 1
4.678587 0.85174495 1.1861724 1
3.9425063 1.0965681 1.2547346 8
3.8685825 1.6992629 1.5484931 3
6.751071 -2.9806685 1.8938918 9
2.3760662 -2.658834 2.1304634 25
1.9847438 -2.4597769 2.1470664 25
2.4896324 -1.9534352 2.1712713 24
0.31414604 -1.624247 2.1119897 36
0.70012158 -1.5274813 2.1276107 28
2.1076443 -1.4722091 2.1812122 1
2.4898534 -1.4065351 2.1906543 3
2.2098897 -1.2495661 2.1679773 4
2.3968029 -0.51397812 2.1747034 1
2.5879424 -0.59900606 2.1825032 3
2.3084364 -0.010932622 2.1856954 5
2.5058134 -0.15875074 2.1842737 1
2.7360473 -0.16233486 2.1991959 4
2.8563554 -0.14735772 2.1860354 3
0.28522655 1.4704082 2.1266375 29.5
0.49677494 1.4459805 2.1472535 27
4.2115374 1.8767928 2.1241529 5
4.2362165 2.10814 2.1394439 4.5
4.1964231 2.2573907 2.168545 3
4.5464258 2.2563362 2.0703545 4
2.0576611 2.4249027 2.1905189 5
4.2753606 2.6343074 2.1669996 5
2.0324755 -1.9210495 2.3112519 24
2.300235 -1.9354988 2.2592735 25
2.6687608 -1.9319704 2.2745094 1
2.8797159 -1.9365383 2.3161247 1
3.0975146 -1.9065907 2.2488947 17.5
3.3142734 -1.8914814 2.2746196 9
2.3999064 -1.572192 2.3328812 1
2.4064255 -1.4599437 2.2025814 3
2.7233782 -1.5013742 2.2108326 2
2.9038892 -1.5701358 2.2175925 2
3.2480195 -1.4850982 2.217638 3
2.1192236 -1.2225775 2.2493947 4.6666665
3.3218684 -1.3937478 2.2444711 4
3.2902021 -1.0204449 2.2239347 101
3.1442125 -0.96151316 2.2157879 3
3.3818333 -0.86286277 2.2742324 5
2.7116508 -0.63945967 2.2057049 1
2.907918 -0.63938737 2.257679 6
3.0803349 -0.63501686 2.2378123 4.5
3.2565787 -0.70697248 2.231818 4
2.5175576 -0.55463046 2.2052114 1
2.1668525 -0.36063644 2.3462346 1
2.3401842 -0.36321944 2.3768103 1
2.4313178 -0.29665744 2.3233821 1
2.1184337 -0.014982727 2.396261 10
2.4550307 -0.17493846 2.2093949 1
3.0387003 -0.19856043 2.2484612 7
3.2571828 -0.19312118 2.2547617 6
3.434262 -0.18234266 2.2986534 6
2.5322723 0.042812709 2.287034 1
3.5106158 0.15382245 2.3124623 7.5
3.6915867 0.088016205 2.313148 110
3.8905661 0.10800933 2.3522661 9
2.5333867 0.27067199 2.3106315 1
3.4177253 0.34568766 2.2684367 8
3.3266761 0.58646083 2.2363439 5
3.6248851 0.41474512 2.3167744 21
3.8604727 0.47787392 2.3743434 81
3.2646632 0.72618425 2.2318311 4
2.7798252 0.81414175 2.210099 3
3.0790529 0.98746681 2.3272562 5
3.2506866 1.1784028 2.2030475 3
2.0799253 1.3556817 2.3168969 10
3.3063083 1.3996705 2.2259531 8
2.0648553 1.5027462 2.2002146 5
3.2278008 1.5241303 2.2241611 5
2.3331847 1.9618256 2.2284503 3
3.1577523 1.8664354 2.233232 2
3.2711225 1.8089077 2.230607 2
1.9923923 2.3866482 2.2469382 7
2.1198528 2.2218547 2.3753872 5
2.0876217 2.7474377 2.2788303 8
0.83409524 2.908905 2.2469599 4
1.5442507 2.8546801 2.2580802 5
1.6900116 2.8330202 2.3063228 9.333333
1.9135869 2.8879519 2.256536 6
3.0342269 3.087847 2.2446663 2
2.2226269 3.2432899 2.2587044 2
2.2633853 3.5328879 2.2450356 3
2.4168007 3.4988174 2.2268012 2
3.2267632 3.8584759 2.3086922 1
2.0158286 -1.9386171 2.5454412 30
2.3139939 -1.7702956 2.5399046 8
2.1429229 -1.4514742 2.4664071 5
2.1309478 -1.2999156 2.4789181 5
1.8137962 -0.23034763 2.4842694 6
2.7088218 -0.39713198 2.417608 1
2.1231332 0.094410785 2.4389393 21
1.8599355 0.52806312 2.5052309 6
4.2104449 0.540277 2.4925728 48
1.8308574 0.6894173 2.5612144 7.5
1.8344687 1.059804 2.4884455 5
3.1093185 1.0659641 2.4144506 5
1.7745991 1.3116393 2.5377526 6.5
2.0780406 1.3664645 2.4129217 9
1.7989562 1.5605541 2.5044308 6
1.8250165 1.4226952 2.5137877 6
1.8089749 1.9843073 2.5083361 7
1.8083556 2.1525929 2.5322711 5
2.1360822 2.337719 2.462852 4
1.8071793 2.5543289 2.5351403 5
2.0075231 -3.1628318 2.7315197 67
1.9903561 -2.4752877 2.7075381 21
1.6673522 -2.2747562 2.7946639 13
2.0305624 -1.9302162 2.7288284 27
0.89527673 -1.6738576 2.7139323 6
1.1960275 -1.6928697 2.7533398 6
1.5335302 -1.6631382 2.7722654 6
1.6848136 -1.6650494 2.7478726 7
1.87844 -1.674141 2.7284186 5.6666665
2.1646798 -1.6569538 2.6807747 5
0.48900768 -1.4665514 2.7248917 6.6666665
0.64107054 -1.5143898 2.7450001 6
0.87749082 -1.4682982 2.7539351 6
1.0960704 -1.4732479 2.7401078 6
1.2702 -1.4794097 2.7400846 6
1.4022739 -1.5318036 2.7483184 6
1.6590137 -1.4852728 2.720613 5.5
2.1580386 -1.4896331 2.7646883 5.5
2.2756531 -1.261451 2.7697573 8
4.2464938 -1.3603462 2.7440164 44
2.3479908 -0.91309094 2.7416024 8.5
2.4222131 -0.6068967 2.6805184 9
0.28091666 -0.46192485 2.7462502 45
2.4254799 -0.47540966 2.7107759 8
4.1205783 -0.43077552 2.7389717 14
0.3698459 -0.25125259 2.7702768 7
1.3956945 -0.24872658 2.7424164 7
2.0632918 -0.0036916216 2.7527916 7
2.193845 0.26675361 2.7288642 8
0.3491188 0.64958841 2.7225006 27.5
0.49811673 0.64109683 2.7221863 24.25
0.62156045 0.68720138 2.6937966 38.5
1.0314503 0.63212979 2.6920738 26
1.5162334 0.6428473 2.6931667 20
1.7283032 0.6494509 2.7034476 13
1.803452 0.62331396 2.6831174 9
2.1285524 0.62524718 2.7237649 8.5
2.2504494 0.65875632 2.6415412 8
4.116446 0.64435393 2.6938326 34
0.36307108 0.96594363 2.7696037 28.5
0.50016958 0.93424881 2.733458 48.5
0.69710147 0.91372281 2.7620347 100.25
0.90916014 0.93890315 2.7005146 33
1.093349 0.92855817 2.709923 35
1.2988878 0.91322964 2.6896634 32
1.4394714 0.93597955 2.6851251 127
1.7531421 0.92256862 2.721247 26
1.8093325 0.93716532 2.7051482 22
2.0762069 0.91877633 2.7154057 24
4.2137194 1.0954446 2.7248116 36
0.24968125 1.2816292 2.712955 10
0.93736887 1.3145854 2.7462101 9
2.0718532 1.3664695 2.6267664 10
4.1656914 1.2418684 2.735055 31
1.8302193 1.5742435 2.6910591 7
2.109493 1.5548909 2.7075865 7
4.2004166 1.4974511 2.7522502 57
2.1817133 1.6309949 2.6621444 7
2.2800078 1.9232368 2.7809286 7
1.7770094 -3.0457435 2.9050906 19
1.8350784 -2.9257686 2.9539711 28
1.7895525 -2.2843263 2.9264948 31
0.88567513 -2.0752158 2.9765038 20
1.1017258 -2.0634816 2.9668245 17
1.3930978 -2.0544767 2.9588132 23
1.4772532 -2.0784068 2.9943936 18
1.8290569 -2.1614861 2.9334514 33
2.0331626 -2.0258992 2.8220649 9
0.86677176 -1.9042499 2.9908855 15
1.3739629 -1.9011655 2.9986989 12
2.3957906 -1.9464468 2.8315134 9
2.422231 -1.8427498 2.8057795 8
2.3572061 -1.106758 2.8436267 6
2.3240535 -0.83233607 2.8900597 6
0.34935907 -0.79274654 2.9272084 14
2.4575939 -0.67661512 2.801743 9
4.1252837 -0.41289321 2.9455447 14
0.91079837 -0.26082513 2.8523521 7
1.0941519 -0.25910601 2.856142 6.6666665
1.3202507 -0.2476612 2.8403137 6.8000002
1.4043988 -0.30051181 2.8723307 7
0.33223343 -0.018074529 2.8534141 47
0.55642247 -0.0027033333 2.9447122 8
0.64451718 -0.054734018 2.8922153 8.5
1.5445641 -0.062147643 2.9358547 7
0.33532637 0.12238307 2.882946 56
0.48555559 0.15270019 2.9439707 42.5
0.62581933 0.13853584 2.9187598 7
0.43033665 0.2014951 2.8908229 34
0.12644574 0.46013033 2.9195542 19
0.7211054 0.46051708 2.8703351 29
0.90113187 0.48414412 2.873163 31.5
1.1348703 0.53903341 2.9312849 34
1.2628431 0.51547539 2.9068813 29
1.7435926 0.65337473 2.8927734 77
2.3847022 0.66074777 2.912133 10
0.83175993 0.86770421 2.8161664 140
1.7357557 1.0663245 2.9365511 33
1.8425949 1.1519846 2.9204266 31
2.3329158 1.0462401 2.8856485 8
2.3903654 1.2950896 2.811332 9
1.6802337 1.5266824 2.9685097 30
1.3592054 1.792586 2.8208234 7
1.8835295 1.7839378 2.8168256 8
2.2029765 1.6447805 2.9566793 7
1.3252631 1.9133192 2.8338995 9
1.5775303 1.8260176 2.8711169 9
1.531006 2.1232064 2.9163904 18
0.78310084 2.3745873 2.8789792 6
1.0528278 2.3910112 2.9383595 5
1.4695683 2.2784348 2.9340074 18
0.86817849 2.4826303 2.9257443 5
1.3414038 2.4739389 2.9476984 5
1.8869127 2.5425141 2.9847534 8
2.2749143 2.4304149 2.8631988 8
1.6734215 2.8834178 2.982091 26
2.0166769 -3.9821284 3.0707161 62
1.2926973 -2.6529255 3.0288205 26.5
1.1733334 -2.5830529 3.0325112 37
1.3904711 -2.589124 3.0428548 42
1.4553694 -2.5707421 3.0223138 31
2.0903459 -2.1632318 3.0155382 9
1.9694824 -0.94018823 3.09975 7
1.678032 -0.66650689 3.1294031 42
0.7266885 -0.44592997 3.1353316 10
1.9165039 -0.46956474 3.0011268 9
0.45829177 -0.00072577782 3.1160533 9
0.25599477 0.17772453 3.0951521 123
1.9452604 0.44566372 3.0521574 9
0.528108 0.65231496 3.1816463 19
1.701015 0.604276 3.0610702 36
1.680298 1.0951544 3.011075 33
1.7624056 -2.8575325 3.314719 35
1.766227 -2.2074146 3.3318846 36
1.7662773 -1.6499417 3.269968 25
1.8203057 -1.5651866 3.2705679 28
2.5853548 -1.0988204 3.2886956 7
2.1962013 -0.87378341 3.3826711 7
0.16532677 -0.61353999 3.3846681 26
2.6435354 -0.76383251 3.3442926 7
0.21989501 -0.5889923 3.3767302 20
0.43503129 -0.44418567 3.3361473 29
0.6086036 -0.43095559 3.3902545 11.5
0.51110846 -0.040213596 3.384449 32
0.65449059 -0.12095897 3.3569698 21
2.1868868 -0.03007707 3.3579242 7
0.27304402 0.21662332 3.3627417 106
0.68773675 0.25554481 3.376291 17
2.4644284 0.27194661 3.2906561 6
0.38028896 0.58487225 3.3048248 27
0.55598962 1.1985935 3.2253139 8
0.75545853 1.1991738 3.3833444 8
0.8093124 1.3511121 3.2917621 9
1.0045495 1.2526398 3.379832 7
1.4318572 1.3009796 3.2799609 8
1.6755315 1.2893767 3.3843808 54
2.1934681 1.3977085 3.337028 6
0.57529211 1.4302156 3.2758336 9
2.2189136 -1.3282974 3.4114892 7
2.4935954 -0.44735122 3.4278524 6.6666665
2.3432639 0.64361769 3.4171395 6
2.6917627 0.65083802 3.4330943 6
0.92304671 1.3291708 3.405407 7
1.3689346 1.371314 3.4607568 9
1.4331201 1.4152957 3.4293895 10
1.5826091 1.7912093 3.4814363 9
1.5461951 1.9356745 3.5171843 8
1.6521244 1.8599921 3.4319777 20
