# .PCD v0.7 - Point Cloud Data file format
VERSION 0.7
FIELDS x y z intensity
SIZE 4 4 4 4
TYPE F F F F
COUNT 1 1 1 1
WIDTH 692
HEIGHT 1
VIEWPOINT 0 0 0 1 0 0 0
POINTS 692
DATA ascii
3.6642988 -1.6401618 -0.40250242 8
0.76293081 -1.2794693 -0.40645716 9
0.11581089 -0.93272483 -0.40314531 28.25
0.5849725 -0.97999477 -0.41059074 17.375
1.0377221 -1.0418792 -0.40883628 9
1.413592 -0.81752586 -0.41264078 8.75
1.8395805 -0.97839463 -0.40711722 24.299999
2.2161369 -1.0466979 -0.4042179 10
0.68895471 -0.6265977 -0.42456722 18.984634
0.9726342 -0.50269997 -0.42135888 13.49252
1.3915226 -0.50086319 -0.42074066 9.6123924
1.7502683 -0.49473888 -0.41352987 9.2226191
2.1681931 -0.49940693 -0.40391132 9.3125
2.5026309 -0.50648314 -0.40167859 9
3.0905082 -0.43235862 -0.40367037 31
3.4097087 -0.51123685 -0.40578711 67.5
0.98391277 -0.24559402 -0.42250502 17.903513
1.3602002 -0.22593252 -0.41472885 12.784302
1.7319881 -0.25159422 -0.40737641 9.6884136
2.1918886 -0.2084353 -0.40833119 12.678572
2.5132172 -0.20982742 -0.40539673 18.733334
2.8940771 -0.37884888 -0.40412134 19.5
3.312629 -0.078319319 -0.40713805 128.54546
1.0733771 0.21038489 -0.41972399 20.626457
1.3503857 0.20572622 -0.41234237 10.896646
1.6450955 0.2504088 -0.40808907 9.3999996
2.2338231 0.14739543 -0.41031244 13.833333
2.4766624 0.23179229 -0.41351622 24
3.2830853 0.026199074 -0.41222429 125
0.68194133 0.65557832 -0.42099756 19.769199
1.0066197 0.53296345 -0.4197332 15.277778
1.5211527 0.68002331 -0.41152987 17.5
1.7613487 0.44986364 -0.40601549 9
2.257458 0.41562894 -0.40851131 9
0.64592791 0.81475878 -0.41553676 12.833334
1.1496272 0.95198172 -0.40951169 26.5
0.12951431 -1.7538201 -0.38133273 87.25
0.7483685 -1.2069664 -0.37922725 10
0.38828135 -0.97491908 -0.18951884 98.5
0.50005227 -1.0126783 -0.29298991 70.375
1.1624736 -0.97144669 -0.33017364 8.9000006
1.3820624 -0.89735299 -0.36075291 9
1.8338603 -1.0195277 -0.3643578 55.5
2.2251544 -1.06151 -0.37689674 17
3.9227862 -0.91031802 -0.36854148 7.75
4.0975795 -1.0698467 -0.37361789 8
0.99291778 -0.69819343 -0.2005641 98.5
2.2483387 -0.45616856 -0.39651224 9.333333
2.6416252 -0.44826484 -0.38627467 9
2.8714726 -0.48918921 -0.38133082 8
3.4972324 -0.51536167 -0.37530848 51.25
3.6536505 -0.58060819 -0.33045647 87.652779
1.9327999 -0.12498039 -0.39626709 9.1000004
2.1375062 -0.307374 -0.39632303 9.0500002
2.590735 -0.22663093 -0.39072496 12.045916
2.9697952 -0.2624706 -0.38564232 12.911111
3.4199257 -0.16231962 -0.29625073 108.8876
3.6374919 -0.27951971 -0.28161842 107.6
2.3123157 0.33583689 -0.39419377 9
2.6016793 0.089220889 -0.39286363 14.577777
3.0706768 0.21029338 -0.38258502 52
3.3956108 0.01597904 -0.26332551 141.3
0.49715897 0.7783097 -0.39323992 10
1.1350862 0.7675125 -0.20127968 40.666668
1.3289977 0.74445212 -0.32713845 44.25
0.60862428 0.81855798 -0.3859688 18.333334
1.1493098 0.904917 -0.29655954 30.370369
1.214871 1.1165802 -0.33277285 15.333333
0.11972036 -1.2165327 0.39821309 58
0.22954571 -1.0100623 0.26309833 94.236839
0.58738369 -1.0101784 0.27642074 70.59259
0.94308579 -0.97898972 0.27916041 68.75
1.0522006 -0.73886824 0.29018494 43.092186
1.340729 -0.74241573 0.32057443 43.476192
3.1251447 0.33281723 0.32900348 137.8625
3.3837781 0.19438896 0.24330753 144.1875
3.7290268 0.13308144 0.28463548 117.63384
0.61795032 0.78966445 0.3315196 34.166668
1.0640441 0.79014242 0.29866052 41.425926
1.383894 0.7889685 0.30320802 42.148148
1.6580817 0.77811432 0.30327439 33.5
3.1050961 0.51347059 0.34535226 96.947227
3.4043036 0.78955454 0.39097509 1
1.04995 0.80524892 0.27019295 63.851849
1.4506468 0.81087244 0.32928342 60.375
1.6640509 0.8077547 0.36821023 31.333334
6.6923819 -2.8579285 0.79144347 12
6.714819 -2.6079662 0.77181649 48.666668
6.7153797 -2.2221444 0.74499303 76
4.3036494 -1.7333543 0.78166562 1
4.6101642 -1.8684106 0.69066918 7
6.698771 -1.8425094 0.71180016 56.833332
0.34556314 -1.379617 0.53303254 58
1.4162934 -1.3753408 0.56317818 12.759523
4.8876467 -1.2440218 0.53133112 10
1.2437674 -1.0395426 0.46111035 122.33334
4.3117576 -0.97288036 0.60439384 47.333336
4.4451065 -0.98061597 0.52649075 41.75
1.0846967 -0.75198573 0.4513725 34.466518
1.3074512 -0.74696052 0.43611404 39.566666
4.2472529 -0.74910682 0.64108926 103
3.9842787 -0.0057450994 0.76267534 24
4.0644879 -0.038628191 0.77698153 10.666667
3.1397331 0.31194666 0.45010284 122.45834
3.238934 0.26100433 0.47204059 113.75
3.8469689 0.16348146 0.58506054 83.257988
1.5664448 0.76648825 0.53102511 14.416667
1.6988827 0.78051251 0.52675033 23.833334
3.0944781 0.51412857 0.46545362 64.80278
4.1699653 0.50413758 0.74713564 3.4166665
0.37289935 0.99781322 0.52587277 75.199997
0.46204314 1.0076268 0.54949391 68.875
1.1450723 0.93610442 0.43891248 42.266666
1.441462 0.97691077 0.55708945 33.538033
1.6573257 0.80850756 0.4691239 42.462502
3.9719315 1.0834665 0.67001325 6.3000002
4.2416162 1.0815086 0.72147608 9.666667
4.4258828 1.0705539 0.66343045 2.25
4.1098137 1.3422012 0.67585516 32.640476
4.0202751 1.64799 0.7601437 89
7.1625667 -3.3096571 1.0087638 7
6.6985683 -2.8662238 0.99337423 8.75
6.9624157 -3.1647387 1.1360235 8
6.6996269 -2.5207043 0.9993313 52.966663
6.7176442 -2.1834018 1.0086657 77.083328
4.3030539 -1.792635 0.9444142 2
4.5501266 -1.856666 0.97100872 25
6.7002411 -1.8524581 0.97763497 62.183334
6.636385 -1.4739774 1.0991542 8
4.1649275 -1.0666881 0.86781162 1
4.2608023 -0.74383134 0.81558686 109
4.2262526 -0.016526004 0.87829554 1
4.5079675 -0.097729787 1.0087223 1.3777778
3.9539657 0.11891589 0.81232488 6.625
4.2957931 0.15136702 0.9724496 1
4.4837627 0.22738659 1.0559262 1
4.3789535 0.62490439 0.89624572 1.975
4.483355 0.58216393 1.0033703 1.1
3.9600782 1.1050866 0.99231356 9.7937498
4.3257947 0.99808961 0.95689243 4.1666665
4.4430866 0.97598845 1.0395805 1
3.9740427 1.2115041 1.0506824 15
4.0231223 1.3804169 0.99072224 49.391918
3.9775422 1.7343472 1.0572522 10
4.0255375 1.6654058 0.98192197 47.398148
2.7365413 -3.9188633 1.5742006 38
2.9197223 -3.9226091 1.5132476 33
3.2312365 -3.9146001 1.5447868 30
7.2133741 -3.3012896 1.5038935 4
6.7142901 -2.9179413 1.4074827 12.166667
6.9389534 -3.1171587 1.5667846 7
6.6826959 -2.5346282 1.4028207 46.812504
6.7129235 -2.1868894 1.3901306 74.865005
6.7065549 -1.9434699 1.4095256 56.299999
4.3958712 -1.1215816 1.2680261 1
4.3546009 -0.075403035 1.512495 1
4.6030254 -0.067397855 1.3939422 1
4.3660059 0.17215848 1.5477839 1
4.6183205 0.2167656 1.420531 1.4222223
4.8292255 0.053575333 1.5949079 1
4.6311088 0.5191465 1.390551 2.2041667
4.8941474 0.59319949 1.5009296 3.5
3.9507632 1.1200411 1.386853 8.5249996
4.1966286 1.0618941 1.4081873 11.866666
4.5576553 0.92185807 1.3407627 1.5
4.8560739 1.0209649 1.4582746 1
3.9371715 1.3892528 1.5063751 10.442461
4.0251245 1.3939739 1.3413408 41.1203
3.928061 1.7792985 1.5112875 10.619048
4.0211344 1.6668317 1.3364381 31.791666
1.8099972 -3.9455371 1.9285759 43
2.0502319 -3.9333577 1.8878982 41
2.6443994 -3.9333599 1.9240745 43.166668
2.9739642 -3.9346852 1.8669397 41
3.4389095 -3.9488916 1.8977909 45.333332
3.7653749 -3.8236177 1.978004 70.333336
7.5966878 -3.6640577 1.9141244 6
7.6186194 -3.7140889 1.8423034 4
3.9495728 -3.4884269 1.8815323 48.111111
4.017745 -3.4027505 1.9109759 40.5
7.1227646 -3.2712035 1.7856061 7
7.4562173 -3.5284698 1.8402846 7
6.7135382 -2.9085262 1.8394661 11.75
6.8793936 -3.0903893 1.8443122 7.5
6.6974998 -2.6187911 1.7797457 41.895836
6.7217178 -2.2305849 1.7691494 90.5
4.5867772 -0.071947888 1.722585 1
5.0023799 -0.028789658 1.7933519 2.5
4.5249181 0.22150961 1.6411554 1
4.9450641 0.16549841 1.8372589 1.5238094
4.6412902 0.5968743 1.6829239 1.2777778
4.96313 0.64386964 1.8440113 2.8
4.6816354 0.97334862 1.7193642 2.5999999
5.0212369 0.92820358 1.8592649 2.5
6.646543 1.1014832 1.9712119 3.6428571
6.6408248 1.2181435 1.9708602 4
1.0583771 -3.9495373 2.2737384 37.875
1.3639537 -3.9530144 2.1930068 40.291668
1.8961871 -3.9002297 2.2498984 50.533333
2.1116104 -3.8624656 2.2017031 53.4375
2.585402 -3.9151306 2.0934002 68.400002
3.0360718 -3.9212348 2.1015329 72
3.4195566 -3.9309311 2.0974696 78.833328
3.8002801 -3.7890143 2.1277337 82.866669
7.4621363 -3.7277632 2.1345367 6.5
7.8273268 -3.8859844 2.1130071 6
1.9875196 -3.3262658 2.3149905 23.5
2.0073893 -3.2992561 2.1334157 24.5
3.963006 -3.5020974 2.148819 64.933334
4.1178503 -3.3690646 2.2751415 63.827381
5.9314384 -3.2171109 2.1498563 8
6.2284265 -3.3669338 2.1487553 7.25
6.5615067 -3.3651636 2.1403489 7.1111112
7.0729051 -3.3044772 2.1101336 7.75
7.3165565 -3.47788 2.0869644 7.25
1.9886441 -2.9799814 2.2640698 24.178572
2.0195098 -2.9604809 2.1391292 25
4.26612 -2.9209037 2.2671278 37
5.0843935 -2.8460374 2.1220582 5
5.4876986 -2.9374337 2.1493471 7.25
5.7443099 -2.9889109 2.1459627 7
6.1492758 -2.9739437 2.1464496 7.8333335
6.5990362 -2.9744186 2.1251075 11.9375
6.8816791 -3.1035485 2.091964 8
1.9866552 -2.6074643 2.2750177 25.770834
2.1808002 -2.576473 2.1308839 25.452379
2.5679688 -2.5554328 2.1321785 23.5
2.9258389 -2.4893751 2.1304624 22.660713
4.2922211 -2.4772003 2.0296645 6
4.7819018 -2.5302994 2.1755946 8
4.8554811 -2.6002011 2.1732845 8
5.4340954 -2.6597936 2.147541 7.6666665
5.72751 -2.5796392 2.1422708 7.6666665
6.2444172 -2.6205938 2.1549361 8.333333
6.7002659 -2.5983791 2.1427639 55.288891
1.983007 -2.1400723 2.2319589 25.528788
2.1783853 -2.1947875 2.1334801 27.467329
2.6019711 -2.1785367 2.1374447 24.699999
3.0098674 -2.1855509 2.1351469 23.887764
3.3306656 -2.133204 2.1392014 42.279999
5.5470805 -2.2829261 2.1386392 8
5.6601148 -2.3596525 2.1502163 8
6.7467613 -2.3418775 2.0668063 104
0.259545 -1.6417154 2.1154485 23.5
0.52478743 -1.6912059 2.1644902 34.625
1.9879687 -1.9587204 2.2604015 24.575001
2.1598654 -1.8682665 2.2601852 18.303635
2.5912921 -1.9260651 2.2203543 20.123333
3.0316112 -1.8463416 2.2138884 12.818982
3.3002236 -1.8758126 2.2057886 23.308083
4.2569337 -1.7901038 2.3655598 36.916668
0.29216421 -1.561031 2.1529691 38.166668
0.56155044 -1.5521387 2.1384437 42.458332
0.9560346 -1.5565351 2.1959078 122.11111
2.2141466 -1.3332204 2.2186909 4.0276513
2.5837173 -1.3457549 2.2198882 2.7342687
2.9886849 -1.399189 2.2094769 2.6326797
3.2754655 -1.4071156 2.2401013 4.125
4.2467074 -1.4115165 2.3170218 44.168056
2.2364953 -0.97925544 2.1989231 4.9926648
2.5910833 -1.0003841 2.19647 3.9260979
2.9990938 -0.98380178 2.2062216 4.12252
3.2909718 -0.98739654 2.2345562 7
4.2398653 -0.99792516 2.2658296 54.683453
2.208956 -0.62219149 2.2149508 4.4190912
2.56217 -0.67895472 2.2076132 2.9995151
2.9846051 -0.71067274 2.216737 3.3338382
3.2646594 -0.74790883 2.2245736 3.75
4.2489572 -0.59519911 2.2229426 75.124619
2.22085 -0.17661406 2.2297449 4.2826133
2.5577042 -0.11126115 2.229984 3.4731786
3.0178869 -0.092971168 2.1989937 3.899621
3.3835213 -0.085184723 2.2692122 5.090909
4.2548685 -0.19962651 2.2503064 52.18676
4.5493665 -0.20861061 2.1810813 7
5.0404086 -0.086749896 2.0348656 2.25
5.2209845 -0.10880875 2.0099952 1
2.2137492 0.21057248 2.2194014 5.7363777
2.5609264 0.15825383 2.2278664 3.113831
2.9786553 0.20902021 2.1959026 4.4604702
3.3828173 0.25754938 2.2528095 25.98604
3.8051987 0.2855702 2.3227601 57.329155
4.2172451 0.20710635 2.2715495 61.471539
4.6783609 0.24836838 2.1908331 7
4.9457035 0.23084943 2.0770385 4.5
2.2371953 0.58560097 2.2162232 4.5023808
2.5714302 0.61146468 2.1964102 3.4140785
2.9790406 0.60398203 2.2008977 3.167094
3.2664967 0.59477383 2.2277517 3.5454545
3.8334892 0.4359971 2.3631637 49.75
4.2683449 0.56984109 2.238142 37.554512
4.5965872 0.60081661 2.1706252 6.2652311
4.916604 0.64129645 2.1255734 5.7530813
5.3611307 0.64358222 2.069591 1
6.6121378 0.58447695 2.105967 1.875
2.2066903 0.99949282 2.2418175 4.5191965
2.5910037 1.0126673 2.2356074 2.0879018
2.9965572 1.0186411 2.2329056 2.8311505
3.2506669 1.0356083 2.2263377 3.9333334
4.2560067 1.0131919 2.2689271 47.85574
4.5879393 1.0353431 2.1534648 5.8441176
5.0046921 0.98126823 2.0877509 5.1351647
5.2510715 1.0170027 2.0316284 4.25
6.5917687 1.0238194 2.0564215 4.2166667
0.26664969 1.4491519 2.1563323 40.880951
0.57610828 1.459882 2.1468787 31.869047
0.95471823 1.4485658 2.1796744 15.5
2.2153063 1.3770573 2.2429068 5.115684
2.5729394 1.4187043 2.2320545 4.0143003
2.9952569 1.3868339 2.2245047 4.2578321
3.3088439 1.4194603 2.2629185 6.1875
4.2448053 1.4114752 2.2596023 33.385933
4.5959868 1.4063523 2.1677995 5.7728567
4.9577408 1.4106801 2.1056771 4.700974
5.2395439 1.2479018 2.0754693 4.5
2.2317176 1.8023325 2.2499762 3.8035033
2.6065371 1.7805917 2.2414865 2.2685659
2.9852846 1.8110399 2.2457414 1.8916798
3.2196093 1.7984204 2.2403038 2
4.2514281 1.7723558 2.2481041 27.079046
4.6238875 1.7776346 2.1641822 5.2728567
4.872992 1.8258963 2.1177089 4.4583335
2.1847885 2.2241733 2.2732782 4.393939
2.6053002 2.2131371 2.2551761 3.7296226
2.9928553 2.1853805 2.2534173 2.9323361
3.2211919 2.2499251 2.2355151 3.5
4.237967 2.2062728 2.2653177 27.615656
4.5911665 2.2095444 2.1617475 4.7833338
4.9561567 2.1946778 2.1327994 4.2261906
1.8564755 2.6544998 2.3032234 8.5
2.2057059 2.592824 2.2710948 5.9156246
2.5761204 2.6196074 2.2494431 4.8035712
2.9821694 2.5489185 2.2438412 4.8233333
3.4639759 2.6900373 2.2793133 17.5
3.6576951 2.7311192 2.2659583 14
4.2659173 2.5573323 2.2449629 22.322224
4.5592537 2.6287861 2.1592979 4.25
4.838366 2.6453898 2.0976665 3.25
0.70602161 2.8890593 2.2300241 4
1.0353467 2.9340427 2.2847569 9.333333
1.4286047 2.9064183 2.2825286 4.7666664
1.8102607 2.8715103 2.2942073 7.0059524
2.1955681 3.0049515 2.2546759 2.0799999
2.619663 3.0190198 2.2482042 2
2.9311931 2.9792061 2.2709937 2.0833333
3.2845609 2.9225998 2.3460555 2
3.8532841 2.9252574 2.3311346 27.133333
4.2444038 2.9777098 2.2625191 22.841665
4.6403828 2.9359839 2.1554348 3.6583333
4.8146524 2.9865737 2.1102996 2.75
1.9778992 3.2593677 2.2304389 2
2.2287214 3.4479098 2.2526846 2
2.6457884 3.3314962 2.2263122 2.8333335
2.9760346 3.4599974 2.2711067 3
3.9877658 3.2118301 2.3900974 63
4.2022705 3.2742219 2.3292174 36.5
2.2677925 3.7381947 2.2521012 3.7222221
2.4878531 3.8224614 2.2508576 5.6666665
2.9974787 3.8644669 2.2476461 4
3.2382972 3.9044714 2.2627859 1
4.2030692 3.8278046 2.3801143 32
3.1009872 4.1352835 2.2564073 2
3.2123344 4.2299528 2.2619009 2
4.1956029 4.2004457 2.3340051 31.055557
1.4215076 -4.0001125 2.776711 36
0.58846265 -3.8197119 2.7341619 33.5
0.97350234 -3.9562237 2.5547621 38.900002
1.4328599 -3.9643958 2.6253347 51.666668
1.8134781 -3.9609864 2.590035 69.98333
2.0140979 -3.7821739 2.5844903 33.666668
0.39737311 -3.3120401 2.6681533 6
0.89365566 -3.2802079 2.7823105 70
1.9918102 -3.3637028 2.5757279 23.583332
2.0042212 -3.4120619 2.7086971 34
4.1812239 -3.319077 2.4588008 67.25
0.34357861 -2.9569411 2.6578655 7.5
0.5970552 -2.8853488 2.6263642 8.6999998
0.98990077 -2.9096346 2.6444759 8.416666
1.4078437 -3.0365283 2.6636705 11
1.9252059 -2.9948189 2.5910654 15.191666
2.0063391 -3.0103962 2.645601 26.75
0.29979193 -2.6633866 2.707515 6.8333335
0.42642528 -2.6846123 2.7430215 6.5
1.9887815 -2.6099341 2.5751283 21.23889
2.0071712 -2.6643014 2.7769303 9.5
0.31133142 -2.260119 2.7129469 6.375
0.40454128 -2.3669469 2.7257447 5
1.9198505 -2.18189 2.6160343 19.546335
2.0158365 -2.1324904 2.7028301 11.666667
2.9820757 -2.0839913 2.543366 19
4.2499371 -2.1411457 2.5558243 42.762589
0.28803667 -1.7059987 2.7056041 6.583333
0.61564952 -1.7043937 2.7360442 6
1.0251586 -1.6942081 2.7648511 6.3690476
1.5340967 -1.658776 2.7762098 6.25
1.8175944 -1.7177627 2.7068768 11.331633
2.1592586 -1.8406593 2.6110308 13.869048
2.4919038 -1.8339616 2.5988712 8.25
3.1392012 -1.9620261 2.4527888 1
4.2537913 -1.8155988 2.6041644 41.80315
0.27896288 -1.480816 2.71 8.458334
0.58481753 -1.490642 2.7241104 6.020833
0.98559207 -1.4804724 2.7355032 5.9166665
1.3312309 -1.4787424 2.7446098 5.8000002
1.7765801 -1.4772081 2.739995 5.4000001
2.146534 -1.4680663 2.6389265 5.6222224
3.9920175 -1.5872293 2.6352799 9
4.2499743 -1.4207107 2.600091 46.216316
0.2894645 -0.996741 2.7149365 25.888889
2.27861 -0.97613037 2.6776655 7.7416663
4.2257061 -0.95973855 2.5742261 60.630627
0.21338892 -0.46117041 2.7436621 47.008331
2.3584926 -0.67280358 2.6786041 8.8888893
2.4203374 -0.56922221 2.7329564 9
3.0055492 -0.4703187 2.4762573 3.6666667
3.4241886 -0.4875752 2.5881498 1
3.9763002 -0.64329314 2.7404776 8.375
4.2063241 -0.60240275 2.6181326 45.525387
0.23502761 -0.23104483 2.7747519 45.764706
1.3989775 -0.24937737 2.7490606 7
1.8740163 -0.12420628 2.6223109 6.8076925
2.2080312 -0.13351297 2.6656852 7.3611112
2.7014658 -0.34545487 2.418689 1
2.9986315 -0.34947157 2.5175073 1
3.6741335 -0.34243846 2.5336685 37
4.2390914 -0.18734707 2.606626 65.620026
0.281048 0.17571048 2.78018 72.823532
1.8359439 0.24685186 2.557128 7
2.2194581 0.25298929 2.6876025 8.6350002
4.2177801 0.031949852 2.6021719 82.875
0.32996103 0.73489881 2.7390378 26.218519
0.60593867 0.71772337 2.7176962 50.117722
0.99429333 0.71364844 2.7087047 35.201939
1.3808942 0.72322023 2.6792934 24.428175
1.7546649 0.66312289 2.6432734 18.608484
2.1808162 0.67883378 2.6385443 12.719629
3.9598007 0.608639 2.5442686 38.5
4.1748142 0.6367079 2.5412433 52.68095
0.33331975 0.89245814 2.7275221 20.034189
0.59772885 0.86018479 2.7595119 99.800598
0.9819001 0.85961181 2.7093904 42.658333
1.4005945 0.85997915 2.6815414 27.890625
1.756858 0.89492691 2.6283667 17.260092
2.1770928 0.89618939 2.6180685 12.703449
3.1017437 1.0801167 2.4009953 5
3.9924133 0.82372737 2.5559702 15.666667
4.2041259 0.9992668 2.5443144 64.509079
0.2301392 1.481163 2.7220457 12.964286
0.68830651 1.5434911 2.69312 7.75
0.9785217 1.50659 2.6924775 7.6190476
1.5839287 1.5709407 2.7191036 7
1.8141024 1.3905053 2.5735452 6.34375
2.1636605 1.3987364 2.6408048 7.6965828
4.2265739 1.4035361 2.5906563 55.540295
0.29583815 1.865684 2.735671 8
0.47798899 1.7513881 2.7611971 10
1.3930249 1.8547091 2.7867837 6
1.7875175 1.7754631 2.6148541 6.0705881
2.1353981 1.759517 2.6315742 6.4499998
4.2214804 1.802749 2.5832887 44.332283
1.7779027 2.1565447 2.5370109 5.333333
2.1984453 2.2700167 2.6203158 5.7053571
4.206459 2.2098126 2.6023107 35.22736
1.8512689 2.6803405 2.5290821 5.5416665
2.1248686 2.5857127 2.651401 7.310185
3.61848 2.5039887 2.4599581 7
4.2141566 2.577333 2.5874915 34.48896
0.77414942 3.0688031 2.6177292 13
0.98453093 2.9837697 2.5381224 24.333334
1.3508277 3.0299149 2.5734267 31.083332
1.7960591 2.8808079 2.5409839 8.8222218
2.0090356 2.8023677 2.4218404 7
4.1998405 2.8497651 2.5466096 38.82143
4.1838779 3.5209103 2.5398569 33.222225
4.1851997 3.7574821 2.5870059 31.058533
4.1557393 4.2242222 2.6727345 26.373213
4.1729121 4.5781169 2.6212487 30.583334
3.9901786 5.0548992 2.7907972 4
4.1850333 5.0228405 2.6088774 34.916668
4.1690097 5.3939528 2.7143409 31
0.66389823 -4.0446901 3.0010495 32.625
0.98570961 -4.0532899 3.0208943 33.666668
1.3856091 -4.0475631 3.0236301 35.26667
1.7652193 -4.0368357 2.9905014 36.888889
2.070843 -4.0275145 3.0356698 37
1.7933625 -3.8905239 3.0243461 50.833332
2.1734526 -3.8948317 3.0521841 42
0.68375373 -2.8542931 3.0342987 8.666667
1.0355673 -2.8587458 3.0363953 8.333333
1.3817405 -2.8597698 3.0588825 21.666666
1.7758268 -2.9599535 2.9911225 26.905556
2.0936975 -3.021152 3.1517568 7.5
0.17768681 -2.5457776 2.8810172 6
0.77239048 -2.6752796 3.0049469 17.5
1.0119095 -2.6755629 3.0066903 21.324999
1.3774123 -2.7008355 3.0308669 25.833334
1.8143104 -2.6621051 3.0095651 22.863888
2.0671194 -2.6957798 2.9096787 8
4.1425314 -2.5159712 3.142396 6
0.76529759 -2.0470111 3.0100641 8
1.0028583 -2.0973256 2.9672844 16.972221
1.4093972 -2.0448384 3.0118859 20.799999
1.7608833 -2.1987369 3.0176604 31.108467
2.0811777 -2.1315703 2.933506 8.25
0.16654158 -1.9792124 2.8621297 8
0.60267973 -1.7242237 2.9046347 7.1904764
1.0020771 -1.8346764 2.954777 13.008334
1.3437252 -1.8248762 2.9524517 12
1.7957976 -1.7561442 2.9292521 17.819729
2.2400675 -1.7953726 2.857872 7.0916667
2.4155092 -1.9428437 2.8689778 8
0.37029016 -1.5051626 2.8823183 9
0.67968369 -1.4344403 2.9648402 13.599999
1.0092779 -1.3651223 2.9911623 20.823397
1.3768601 -1.3738893 3.0046351 20.112331
1.8158197 -1.4273645 2.9448473 24.063372
2.1361954 -1.4332627 2.8569119 6.3333335
0.38085455 -1.1396751 3.1628077 9.1999998
0.7547611 -1.0011584 3.0087924 16.950981
0.99784422 -0.9970932 2.9887402 21.764706
1.3822588 -0.98572403 3.0082541 21.890196
1.7480539 -0.98749882 3.0521989 29.388279
2.3526278 -0.91750211 2.8496375 7.895833
4.103097 -0.82971609 3.1091022 7.75
0.3405973 -0.64094377 2.8694324 24.333334
0.63115835 -0.50542086 3.0324352 17.419298
0.99588573 -0.59419131 2.9927173 25.601088
1.370223 -0.61088198 3.0050809 23.549208
1.7664894 -0.58657402 3.0053113 26.173376
2.3766446 -0.60873902 2.8607788 9.125
2.4321866 -0.58741319 2.8382497 9.166666
3.9824424 -0.56137502 2.9148929 9
4.0856152 -0.57747656 2.9395237 8.8776922
0.24797568 -0.15124634 3.0021698 77.43
0.61232907 -0.18068385 3.0204988 10.476562
1.0158825 -0.16187955 2.9388514 10.233081
1.3803889 -0.16905154 2.951895 9.9615021
1.7789025 -0.17170648 2.9672608 18.159285
2.2072101 -0.13728285 2.9999514 7.5250001
0.22696528 0.29666772 3.0579479 39.651787
0.61820871 0.17624389 2.9651947 16.592398
0.9949373 0.19690333 2.8717303 22.310856
1.3776631 0.19471407 2.880805 19.578072
1.747802 0.20386927 2.9621043 23.749226
2.2616899 0.17271292 2.9174345 11.611111
2.4235182 0.23722775 3.1302023 6
0.23682325 0.60343695 2.9798102 22.649652
0.62700886 0.5573855 2.9559007 19.389481
1.0078263 0.45818806 2.8839312 37.755955
1.3631212 0.46194404 2.8829517 34.263947
1.7589231 0.53277701 3.0002639 29.220085
2.2984104 0.55166101 2.8521147 8.6388893
2.4147243 0.58852679 2.8657188 11.142858
0.18926881 1.0572218 2.9776323 8.1857147
0.71018285 0.86247396 2.8012698 131.33333
1.5015432 1.0184524 2.8566647 142
1.7542557 1.1361064 2.9472413 33.599998
2.3426437 1.1312798 2.867295 8.4285717
0.16011773 1.3375446 3.0094023 8.5555563
1.4316522 1.2958816 3.1048245 8.5
1.7788842 1.4190075 2.9410985 29.776667
2.2564888 1.2861196 2.9271374 8.5166664
2.4078226 1.2877692 3.0778289 7
0.29299024 1.6915604 2.9587166 7
0.69752294 1.7744125 3.0108624 8.5
0.93568897 1.8183978 2.8719392 7.75
1.424955 1.8303603 2.8902702 23.833334
1.7501035 1.7523097 2.9257014 17.766666
2.2659888 1.7418826 3.0144324 6
0.35979074 2.3094926 2.9918809 7
0.65110844 2.2850845 2.8930364 10.16
0.99850965 2.281028 2.9095526 13.293651
1.3852648 2.2216465 2.928175 16.50238
1.7401253 2.1900797 2.9641564 28.407738
2.297298 2.2187495 2.8280256 7.916667
0.52609009 2.5341022 2.9567506 6.0833335
0.975429 2.55212 2.9742801 5
1.3910623 2.5062022 2.9673734 5.6999998
1.7689652 2.5703363 2.9523716 18.498863
2.2356732 2.5212135 2.9565477 8.2666664
0.60095644 2.9711485 3.026855 7.1666665
1.0096474 3.0769482 3.0460539 18.847223
1.318711 3.1163287 3.0544372 25.541666
1.7590328 3.0422626 2.9907806 21.75
0.99623942 3.2349224 3.046658 14
1.7442683 3.252471 3.0200562 23
2.4064624 3.4002807 3.1503737 4
4.1403737 3.8170948 2.8094697 9
4.1164007 4.6390457 2.8987288 7.5999999
4.1101341 4.9875183 3.050914 8.25
4.133842 5.2792192 2.8191798 17
4.0450692 5.6217918 2.8049002 6
0.89054734 -4.054894 3.2074294 33
1.3294077 -4.050035 3.2335529 31
1.6567397 -4.0732298 3.2513516 51
2.1885691 -3.9570365 3.2117164 34.5
0.66667068 -3.3662381 3.3409917 6
0.99632251 -3.4111333 3.4154396 7.3166666
1.4119115 -3.3974843 3.4355838 7.8499999
1.7010453 -3.4118423 3.3687212 24.108334
2.2116175 -3.3746076 3.2970099 6.5
0.66124904 -2.9717958 3.2601371 7.1999998
1.7082369 -3.0188122 3.2716365 50.200001
2.2358627 -3.0287564 3.2996559 6.4166665
1.7864745 -2.7398119 3.225656 22
2.2983789 -2.6082549 3.3582761 6
4.1746168 -2.4576135 3.2280204 5
0.11687518 -2.1300144 3.3770282 9
0.64675599 -2.2365229 3.3943043 6.8888888
1.7460896 -2.2424059 3.2520282 33.791668
2.3115263 -2.2313333 3.3634391 6.2678571
2.5485408 -2.2206092 3.4080381 6.3333335
0.20635961 -1.6953793 3.3816147 8.5625
0.60623449 -1.6832056 3.3826029 7.7377553
1.7673357 -1.616318 3.2892156 25.5
2.3225131 -1.6524222 3.3847995 6.4499998
2.5081971 -1.6695573 3.4063044 6.625
0.24068706 -1.3593074 3.3670189 9.1454716
0.59104198 -1.4129206 3.38833 8.727211
1.7312984 -1.4774055 3.2679253 40.763256
2.3117483 -1.3934702 3.4072101 7.7625661
2.5166264 -1.4020894 3.3965878 7.3809524
0.19680892 -0.9860909 3.391161 11.210714
0.59933442 -0.99627918 3.3887856 8.9319448
1.7379524 -0.9567188 3.2471437 31.854702
2.3106737 -0.98194045 3.4109764 7.375
2.52878 -1.0165955 3.4174433 6.9399037
4.1811886 -0.85758275 3.3401921 8.4333334
0.1937227 -0.68226409 3.3842146 21.114584
0.58351606 -0.633367 3.3708925 11.361205
1.7525237 -0.58015341 3.2938843 32.357143
2.316546 -0.54161578 3.3920286 7.3541665
2.5549591 -0.6221627 3.4262083 7.0206041
4.1768608 -0.75589651 3.301764 8.1333332
0.18860179 -0.21225432 3.3259435 93.956062
0.57466203 -0.18071945 3.3713245 23.598463
1.7416207 -0.21029586 3.253056 29.444445
2.2533629 -0.11068177 3.3373518 6.75
2.6171651 -0.18087018 3.3889234 5.4375
0.22570691 0.25589085 3.2917194 44.633331
0.58657718 0.32399872 3.39888 19.700478
2.2523923 0.20057255 3.3910344 6.5919118
2.5571816 0.25583452 3.3598576 5.7333336
0.29145488 0.58079475 3.3443174 23.041666
0.62544876 0.58195305 3.4056151 14.226192
0.97791588 0.64139926 3.3520825 9
1.5550717 0.63140517 3.2923915 10
2.3070149 0.54395187 3.4398556 6.6538463
2.6426153 0.54171515 3.4431908 6
0.30305347 1.0658258 3.3818407 9.2597227
0.62893891 1.1863986 3.3386564 8
1.0600458 1.1991769 3.3721962 8
1.5139744 1.1993876 3.3579795 10
1.7612175 1.1995064 3.2927387 34
0.26046216 1.3507584 3.388875 9.0555553
0.58698463 1.3662368 3.3833461 8.2637482
1.0198537 1.3453243 3.3999214 7.4656334
1.4173764 1.3806908 3.398206 14.647186
1.7054951 1.3430567 3.3507109 51.755554
2.2193818 1.2723866 3.3629632 6
2.5582938 1.3564882 3.3466439 6.75
0.58431667 1.7776656 3.4175339 7.431746
1.0136436 1.7999394 3.4517872 7.1845241
1.4037613 1.8124175 3.4761019 8.1269846
1.669414 1.8141201 3.4057934 29.683037
2.2076643 1.7936919 3.3273158 6.75
2.4250839 2.3069887 3.2793818 5
0.53486228 2.6492438 3.3153753 7
2.5366497 2.5026209 3.3702307 5
2.1902103 2.95802 3.2377491 3
2.602433 2.918427 3.389982 4
0.65461618 3.2282343 3.3447454 6
1.692008 3.3150065 3.2440817 28.666666
4.2064714 4.7241125 3.507199 5.5
4.200881 4.9116607 3.4110446 7.75
4.1902704 -2.8744919 3.7399163 6.75
4.3144097 -2.652899 3.7916279 6.7666664
4.2417545 -0.81337953 3.6470873 5
4.2417555 -0.58204317 3.6909852 6
4.2492857 -0.36488897 3.6034606 14
4.162015 4.7678185 3.6853716 5
4.1742687 4.8969793 3.7205756 3.5
4.3543935 -2.681025 4.3032646 5.083333
4.4180145 -2.5729079 4.3585391 5
4.0834665 3.2658267 4.2201471 4
4.3563061 -2.6536679 4.42103 5
6.5334682 -2.3169084 4.4957223 3.5
1.3942807 5.9917655 4.5590663 6
2.2692752 6.0866776 4.6396112 6.5
2.4702456 6.0520344 4.662703 5
4.1174316 6.7423801 4.6171889 3.25
4.1402521 6.8605118 4.5241346 5
