# .PCD v0.7 - Point Cloud Data file format
VERSION 0.7
FIELDS x y z intensity
SIZE 4 4 4 4
TYPE F F F F
COUNT 1 1 1 1
WIDTH 1412
HEIGHT 1
VIEWPOINT 0 0 0 1 0 0 0
POINTS 1412
DATA ascii
0.49158633 2.302876 3.0020707 9
0.86210644 2.3823094 3.0713205 8
1.6276215 2.3206186 3.0623703 10
1.9498651 2.5855436 3.0670011 9
17.039837 2.5484929 3.047117 52
0.24024177 2.7516437 3.1891544 8
16.926874 3.0852873 3.0323467 44
1.2923782 4.4957767 3.1384053 9
14.756652 4.6860867 3.1228135 43
14.816559 4.6532564 3.114445 38.5
1.2349112 5.0158029 3.0930414 9
14.658341 5.2392879 3.1162944 8
9.5756817 5.466372 3.1628346 8
14.036299 8.5581789 3.0482564 27
14.002487 8.9071636 3.063962 28
13.78882 12.407916 3.157444 5
7.1175852 -11.938807 3.3625312 49
37.443127 -11.707743 3.2322657 43
37.519001 -11.109133 3.327569 53
17.187702 -7.4412146 3.3302655 10
7.1403065 -7.3472896 3.3052013 13
7.2392135 -7.2816229 3.3477311 11
13.474454 -7.2093587 3.3990448 14
17.271553 -7.3788319 3.2277334 27
1.2472947 -7.0304976 3.3348579 14
1.1584823 -6.8112378 3.3829598 5
14.248612 -6.8949232 3.2139511 35
1.0942867 -6.6482844 3.2234535 5
14.541798 -6.723093 3.3395066 66
17.240833 -6.6129141 3.3618503 31
17.532785 -6.4723954 3.2313199 30
17.631073 -6.5823803 3.2426453 23.5
6.8629775 -5.8840499 3.2624881 7.3333335
1.0055873 -5.6402397 3.2714133 16
6.8905039 -5.7270794 3.3055253 4
25.701008 -5.7117047 3.28722 59
0.93067658 -5.536334 3.2944133 18
6.8514833 -5.5820756 3.3738878 5
1.4954801 -4.7421403 3.2318685 22
6.5121093 -4.6144142 3.3494895 13.5
2.2598102 -4.4347463 3.2436798 21
6.5652189 -4.5218334 3.2645013 8.25
6.632472 -4.4602275 3.2724156 4
0.75265515 -4.2265701 3.2517383 12.25
2.3497508 -4.3686099 3.3562591 27
6.576684 -4.2868881 3.3070114 4
6.6911302 -4.2961779 3.2602634 3.5
6.4977722 -4.1257052 3.3099351 4.375
6.7093482 -4.1143532 3.2614405 3.5
1.7822962 -3.9377215 3.3008056 5
3.0903387 -3.8775008 3.3848708 20.5
3.2340155 -3.809618 3.3308349 28.5
6.4419961 -3.9556229 3.3078151 4
1.4921712 -3.614475 3.2916348 15.25
6.387867 -3.6753287 3.2952015 4
6.4437246 -3.7206323 3.2407033 3.5
1.4741732 -3.5745456 3.3162768 9.666667
3.5566652 -3.5794899 3.2878547 16
3.609395 -3.5714788 3.2844534 17.5
6.2452421 -3.2384794 3.3120377 7
6.2437615 -3.1737297 3.2737968 8.5
6.4179354 -3.0186613 3.2071164 4
7.770278 -3.0647457 3.321203 7
2.5032191 -2.8211436 3.3415203 8
6.2596631 -2.8531787 3.2464421 4.5
7.2813663 -2.9040999 3.3725126 4
7.7144694 -2.8486114 3.3020985 4
2.5886307 -2.738616 3.2739246 7.5
6.2697802 -2.7357922 3.223151 5
7.670054 -2.7519939 3.3397586 8.5
6.2134805 -2.5432835 3.2907865 5
7.6792288 -2.5605073 3.3198676 5.5
2.40994 -2.3403659 3.3743961 11
6.1734519 -2.3298342 3.2825298 5.5
6.9196696 -2.347167 3.2952259 17
7.6391878 -2.3602557 3.322361 6.25
6.14184 -2.1240749 3.2674325 6
6.2463751 -2.0269771 3.2366607 5
7.5731087 -2.1002097 3.2940466 5.4166665
5.9756269 -1.8441424 3.2408376 9
6.0463066 -1.8501277 3.2568789 8.666667
6.5213537 -1.9028827 3.2511268 40
7.5424676 -1.8790728 3.2879472 5.7619052
2.3768618 -1.7776761 3.2173321 9
5.9713097 -1.7643237 3.3806274 9.75
6.1701765 -1.7134011 3.3310528 14
6.2893744 -1.7052156 3.3189979 17
6.4812508 -1.6863524 3.2792027 14.6
7.4966736 -1.7030674 3.2889149 8.833333
0.22784936 -1.5768737 3.3452051 9
6.5080528 -1.5911794 3.2945478 3.5
7.4659896 -1.4881109 3.2814314 4.5
0.26150024 -1.3772498 3.2949724 9
7.3876495 -1.2733494 3.2838326 4.5
7.4876709 -1.2520487 3.2927675 4
0.29749012 -1.1672934 3.2541275 8.5
7.3763022 -1.0805171 3.2907729 6.8571429
7.412569 -1.0972137 3.2840981 7.5
7.3210325 -0.89237845 3.2533731 4.25
-5.059535 -0.78591263 3.2029252 3
-0.75640893 -0.67654401 3.383343 9
7.3192792 -0.72627342 3.2939487 8.1428576
7.0652151 -0.45333996 3.2770445 26
7.2520542 -0.45824367 3.3054719 9.5
-5.2219372 -0.25695217 3.3465264 26
-4.7838817 -0.22954559 3.3673387 23
-4.0274367 -0.32112584 3.3096254 9.5
6.9807968 -0.29040504 3.257628 20.5
-4.7022791 -0.056445241 3.3227448 23
-3.0796685 -0.09206152 3.2545907 8.5
1.6419175 -0.10263194 3.3007877 9.5
6.9136434 -0.014633067 3.2416859 23.5
-7.50073 0.12910724 3.2028675 14
-4.4156961 0.040674925 3.2728488 23
-4.2298346 0.083847165 3.2802048 19
-3.4317863 0.19078769 3.3604059 5
6.8902988 0.13257331 3.3439655 22.75
-3.3248799 0.27589148 3.2221391 2
0.88834679 0.37411124 3.2322783 13
6.908783 0.21433727 3.3153763 14
7.3782325 0.35492572 3.3978157 4
-2.7898476 0.49804196 3.3531399 14.833333
0.97593546 0.42953879 3.3130078 11.5
1.0566258 0.46543294 3.332835 10
2.7639897 0.46211517 3.2957869 3
1.5309235 0.76630831 3.2615507 10
2.7335224 0.71263194 3.2913122 32.5
2.8515499 0.75591755 3.2513671 4.5
17.389574 0.67472047 3.3705094 27
1.1142132 0.92428583 3.2768352 8
1.6059573 0.80961198 3.2912359 10
1.8774419 0.92504919 3.355408 9
2.8810506 0.84613246 3.2398646 4.6666665
17.307117 0.92226028 3.3584945 38
2.9427783 1.0850129 3.2331159 9
0.8846848 1.264297 3.220212 90
1.2826308 1.3131312 3.3245199 8.75
1.516309 1.2907526 3.3082938 8.5
2.9718919 1.2043668 3.2184486 10.333333
15.442033 1.2370275 3.345449 45.25
0.37337863 1.4861364 3.2097476 9
1.5781277 1.4285281 3.2208185 9
2.1723003 1.5968835 3.2234387 9
2.3297732 1.4811683 3.2219396 9
2.4836144 1.4731374 3.2090738 9
16.77915 1.5546918 3.2479169 16
0.88776052 1.6239824 3.3634987 47
1.2364579 1.705749 3.3579636 10
15.34761 1.6484339 3.3475151 42.5
15.459563 1.7103199 3.3205953 111.5
0.044209361 1.9288919 3.2080643 8
15.251721 1.8630579 3.3709393 32
1.0625563 2.0831573 3.2361271 8
1.6397312 2.1859853 3.3123703 10
0.21443093 2.3435891 3.2112873 8
1.6199429 2.3124688 3.2433836 10
3.8947392 2.2411473 3.3622832 9
0.12985325 2.4364693 3.2549481 8
0.20425212 2.5265296 3.373853 8
17.035822 2.5246787 3.2451186 52
17.219997 2.4281659 3.2080996 15
0.27064157 2.883698 3.3199594 9
6.0148368 3.5835097 3.3638062 9
17.528717 3.6187472 3.3327596 18
17.735672 4.2667503 3.2213702 16
7.5022469 4.5283909 3.3849375 7
1.2499204 4.7564759 3.391314 9
14.706392 4.7614493 3.38922 45
14.947723 4.7309771 3.3277471 48
1.2256522 5.0081129 3.2376034 9
8.4158497 5.0687566 3.3429224 8
13.464535 11.764445 3.3803356 14
12.356482 17.410305 3.215358 10
22.676657 -15.907384 3.5720494 20
23.707119 -14.859814 3.4457803 35
23.946608 -14.62863 3.5345886 32
23.931444 -14.587271 3.535006 25
9.3219261 -12.305468 3.5519156 60
36.794693 -12.24187 3.4126315 59
9.6901798 -12.041585 3.5065966 63
7.1427145 -11.849262 3.5800688 25
10.123131 -11.756893 3.4032304 54
37.536072 -11.682422 3.465888 38
11.54114 -8.7080326 3.5529685 29
7.4024611 -8.4472456 3.4982777 5
11.847735 -8.4062777 3.5559547 10
12.758956 -7.8607435 3.5086539 38
7.0899606 -7.4207444 3.5684638 11
13.376323 -7.4521108 3.4361773 10
7.109221 -7.3116736 3.5071192 10.666667
13.317764 -7.2729774 3.4123962 14
17.114517 -7.2303343 3.4740942 36
1.2556908 -7.0518856 3.5040531 20
7.0866108 -6.8706298 3.4213212 9
13.897821 -6.9959116 3.430639 12
17.032276 -6.8238807 3.5952637 33
1.1456602 -6.7355042 3.5325172 5
14.690649 -6.7352133 3.4129987 47.5
15.050818 -6.5409026 3.4633429 38
17.359268 -6.5350246 3.5753582 32
17.582209 -6.5825472 3.5178239 15.5
17.689785 -6.4383974 3.5165598 6
6.7697515 -6.0109148 3.4949193 9
6.8235989 -5.9876552 3.4147747 13
0.95010686 -5.6166978 3.4276557 11.5
1.0110531 -5.6575756 3.4929159 11.5
6.892684 -5.6354103 3.410444 4
25.75964 -5.5748038 3.4065917 80
4.5156388 -5.0878553 3.535414 3
8.0819759 -5.0586977 3.4398179 4
1.6248474 -4.8435855 3.493422 38
1.4534423 -4.7601428 3.4101214 21
6.5160732 -4.6108913 3.5577407 16.5
2.1118407 -4.5765395 3.4043136 16
6.5484576 -4.5574327 3.5026362 11.25
0.20237637 -4.3790975 3.4214203 9
0.72822571 -4.2563286 3.4221313 5
2.3342052 -4.36274 3.4621849 22.75
1.8318295 -4.0260324 3.5649741 5
2.8924682 -4.0656404 3.5478437 16.75
1.8412244 -3.9753263 3.4815702 2
3.1002319 -3.8519154 3.576201 10.666666
3.9336197 -3.9599507 3.5056684 3
3.1137354 -3.7559144 3.5582154 5
3.2898536 -3.6709719 3.5530074 16
3.4804029 -3.6071122 3.5906453 25.5
3.7668371 -3.6592858 3.531518 4.3333335
3.8607116 -3.7405925 3.5365334 3
1.4871838 -3.581583 3.51197 10.6
3.5192728 -3.5552645 3.5117691 17.333334
3.7095709 -3.5172 3.5096877 3.5
6.2505064 -3.2268717 3.4959135 10.25
6.2307491 -3.1630547 3.4753723 13.5
2.4950876 -2.8184006 3.545373 8
2.5443826 -2.7621677 3.487565 7.5
6.348887 -2.6653333 3.4732199 6
7.3867369 -2.7945316 3.5369503 13
7.068388 -2.4645929 3.439049 23
7.662364 -2.5647445 3.4386208 6
2.4063373 -2.303988 3.4657919 10
6.7688913 -2.2542043 3.4623189 19
6.8030577 -2.2472825 3.4310515 15
6.2018318 -2.0320046 3.589339 6
-6.4823036 -1.8294374 3.5627239 23
0.14914858 -1.8109745 3.4005005 9
5.9928484 -1.8548728 3.4836743 8.5
6.0305743 -1.8290091 3.5005822 9
6.2042556 -1.996825 3.4602878 6
2.3530512 -1.7405959 3.4950056 9
5.9862199 -1.7690835 3.58601 9.5
6.2812257 -1.7172651 3.5086057 18
6.4185381 -1.6418382 3.4738069 9
6.4883118 -1.5885648 3.4659967 3.75
-5.4414845 -1.0635101 3.5525942 8
-5.2272806 -1.0352485 3.5553308 7
7.0820994 -1.0173606 3.4514089 27.5
-5.1470776 -0.88180625 3.504777 8
-7.7404656 -0.69795573 3.5477409 102
-5.1043725 -0.62325919 3.4593685 22
-0.82591653 -0.7541132 3.5840786 4
2.5148077 -0.56679833 3.5669854 6.5
-7.5530276 -0.35335433 3.4657571 63
-5.0889325 -0.39997196 3.4147112 25
-4.0377078 -0.21943708 3.426374 9.75
-3.9768331 -0.23681873 3.4950507 8
6.9169135 -0.22071715 3.4835489 19.5
-7.3691163 -0.15038598 3.4758072 13
2.580972 -0.17482638 3.505594 10
6.8616343 0.13616106 3.5189316 21
-3.3040199 0.27817231 3.509676 5
6.8547621 0.22473957 3.5238023 13.5
7.3870716 0.34605652 3.4371085 5.5
7.4651709 0.35844979 3.5380795 5.5
-2.811712 0.48960501 3.487042 9
-2.7557304 0.52716392 3.5140681 11
0.94436014 0.41183943 3.4455438 11
1.1548249 0.52789181 3.4842052 10.666667
9.661644 0.51802361 3.4747243 11
9.8671513 0.4732621 3.4975407 9
10.903831 0.52420396 3.5311692 8
11.237851 0.5722369 3.5587301 8
9.7109718 0.6317091 3.4912448 10
9.8467178 0.61889321 3.5066848 11
10.121737 0.70185006 3.5162418 11.5
10.261082 0.75972569 3.5098445 9
10.509621 0.73847091 3.5422304 12
10.876728 0.7722165 3.5377038 12
11.683196 0.64651996 3.5568583 6
-0.29772842 0.97972608 3.5276978 8
1.8653109 0.9127211 3.5145357 9
10.623949 0.82744169 3.545207 10
10.89927 0.85312307 3.5513906 11
11.190068 0.83200198 3.5586112 11
11.290073 0.95376968 3.5908608 9.5
11.531555 0.98360479 3.5957594 13
15.478484 1.111834 3.5689251 42
15.413443 1.2647448 3.4791481 50.25
15.36913 1.6444726 3.5223837 47.5
15.453954 1.7126623 3.5671506 119
17.007257 1.6623123 3.5740862 16
1.6174915 1.9786485 3.5856333 9
15.31214 1.8455852 3.5855427 174
2.699193 2.0953133 3.4984126 9
3.7850089 2.1725199 3.5269148 9
1.612184 2.2766905 3.5759568 9
0.14341509 2.4372554 3.4024997 8
2.7327824 2.5390162 3.575191 38
4.3156204 2.510771 3.5680315 9.5
17.040443 2.4993043 3.4605188 44
17.226707 2.4565575 3.5397799 16
2.0272272 2.7182884 3.470082 9
17.315416 2.7784925 3.5943482 10
8.2902794 2.8338139 3.430666 2
9.9277496 2.8818359 3.4807708 4
1.4621977 3.0984766 3.4848719 9.25
2.067327 3.1364934 3.5122139 9
1.9508116 3.3388186 3.4074793 9
5.5431404 3.2581451 3.5271089 7
5.8446918 3.4467905 3.43028 7
2.1490338 3.6164174 3.4010334 8
6.5853939 3.9709182 3.4313145 8
6.9557362 4.1730614 3.5175807 8
16.535845 4.1814146 3.4300182 36
7.0571027 4.2771578 3.4357619 8
7.4381485 4.4778905 3.4032071 8
7.7793827 4.6972332 3.4645412 8
14.788948 4.6620412 3.4649487 43
14.877852 4.6474156 3.5835757 53
1.2198117 4.9825439 3.5282221 9
8.6189718 4.9492016 3.4701562 8
1.2054989 5.0804858 3.4001296 10
17.940357 5.19209 3.5504622 16
13.439111 6.658278 3.4787211 29.5
14.27907 6.6052928 3.5673065 40
14.167667 6.8057265 3.5686481 31
13.386383 7.1433988 3.4703968 21
13.263485 7.3600755 3.531683 32
14.129992 7.3041077 3.5326242 38
13.430606 7.593873 3.4584157 19
13.098703 7.8528166 3.5909636 61
14.055445 7.9126554 3.5042784 39
12.989557 8.3188715 3.5824273 27
12.981924 8.5640144 3.541101 49
13.970877 8.5925932 3.5178857 51
13.029478 8.7047987 3.5427678 45
13.935699 8.6714602 3.513736 46
13.123927 8.8438187 3.4856877 58
20.374533 10.250307 3.5167048 13
13.712172 12.512341 3.4607444 6
12.283528 12.800039 3.5649347 9
12.218331 13.203912 3.5201988 9
12.011992 14.852586 3.404418 10
12.822946 14.978393 3.5130584 10
11.870466 15.166547 3.5354893 19
7.7144113 -11.696158 3.6730299 11
37.02784 -10.310715 3.7950456 71
12.286805 -8.3249435 3.6750453 97
13.28145 -7.7683334 3.6253765 6
13.652156 -7.7170453 3.7147937 5.5
7.0488129 -7.4438925 3.7443571 13.5
13.778608 -7.5538521 3.7778687 14
14.487123 -7.4497495 3.7047009 29
14.266561 -7.319375 3.6035309 148
14.865485 -7.3541837 3.7573621 29
15.022396 -7.2481585 3.7366624 9
15.703809 -7.3652678 3.7987082 28
17.09911 -7.2882204 3.7636132 11
1.2273815 -7.0156083 3.6811004 10
1.172935 -6.8298345 3.6834807 5
7.0113449 -6.8389831 3.6062119 5
17.092283 -6.6821117 3.6817336 32
17.338465 -6.6937604 3.7954173 34
15.095672 -6.5328884 3.7383668 35.75
17.607693 -6.5971336 3.788177 18
1.0816922 -6.3902235 3.7934139 16
6.7909813 -6.0170107 3.6880941 10.25
0.88307166 -5.900321 3.7957509 9
6.7849908 -5.9770222 3.6622169 9.666667
6.8354969 -5.9048109 3.6986475 16
1.008368 -5.6719856 3.7020941 20
6.9504051 -5.7190547 3.6415811 5
25.771954 -5.7998261 3.6647673 51
0.82780325 -5.5017605 3.7385008 6
6.8076019 -5.3546619 3.6182952 5
17.140825 -5.0100818 3.7824402 28
1.6796345 -4.8294821 3.6761127 22.5
6.7066975 -4.9404998 3.6417911 5
17.155167 -4.8286185 3.740092 6
1.8959584 -4.7000561 3.7152338 4
6.5006313 -4.629715 3.7210264 10
2.1334438 -4.5572939 3.6357503 22
2.2030249 -4.4113092 3.6124291 10
6.5275712 -4.5573673 3.732579 10.666667
2.2962317 -4.3459501 3.6761854 6.3333335
2.400506 -4.3292093 3.6739261 9
1.8492813 -4.0144243 3.7326202 8
2.7196128 -4.1413488 3.6058986 7
2.8455613 -4.1101594 3.6133831 10
1.0222776 -3.9707339 3.7516222 6
1.9265895 -3.8266687 3.761235 3
6.5002575 -3.9497542 3.655952 4
1.565477 -3.6595736 3.6494544 10
1.741493 -3.6475708 3.7225473 3
3.1346703 -3.7825594 3.6138697 6
3.2712355 -3.7658799 3.6930032 16.5
1.5152467 -3.563422 3.7088776 11.1
6.234426 -3.2270496 3.6905813 9.666667
6.2397299 -3.1519392 3.7165997 7.9000001
16.55974 -3.1432543 3.7846289 23
2.5057406 -2.8207333 3.6371853 8
7.3969927 -2.8233123 3.6086602 14
2.538187 -2.7625065 3.6760428 8
7.3328953 -2.7448654 3.6336608 12.5
7.2458787 -2.4600739 3.6688228 24
2.3719378 -2.2210228 3.6470551 10
6.1425319 -2.3973591 3.7960854 5
6.2257924 -2.2349794 3.7652776 6
6.1768465 -2.1921308 3.6417818 7
6.2013111 -2.0043039 3.7876132 6
7.2696896 -2.0935254 3.6942101 29.5
-6.5518827 -1.8910525 3.6049805 8
2.381393 -1.9415621 3.7119358 9
-6.4584188 -1.6836886 3.6206682 18
5.9751434 -1.7506815 3.6817853 9.333333
6.2139902 -1.7286913 3.6216836 13
6.4824543 -1.6459455 3.7044485 6.1666665
6.4557691 -1.5806897 3.6642413 3.5
-7.8554912 -1.2245234 3.6358228 85
-7.7360902 -0.95862663 3.6082244 83
7.0640326 -0.95079285 3.6710975 26.5
-4.0181003 -0.21210313 3.6209037 9
-3.9332793 -0.23038346 3.6041384 16
-3.96525 -0.1833605 3.7267177 9
6.87467 -0.1732818 3.6862774 22.5
6.709641 0.091833636 3.7121191 17
6.8389254 0.093732066 3.7351556 22.5
0.90034068 0.37666595 3.7576413 8
6.7938013 0.21355549 3.6768882 19
6.8372684 0.20781763 3.7117116 21
7.3945332 0.38534874 3.6857462 3
7.4365387 0.37221298 3.6691387 5.3333335
-3.0012994 0.4391095 3.7106586 4.5
-2.7654364 0.45497864 3.7382045 9
1.0829716 0.48055533 3.769237 9.5
12.191313 0.72701788 3.60496 5
1.8503236 0.92582864 3.7089829 9
11.151862 0.85064632 3.6430166 10
11.760979 0.93825048 3.6108923 10
11.864822 0.89853162 3.6175759 15
12.733455 0.86225343 3.6438255 9
17.04232 0.87963998 3.749119 16
17.292545 0.91108429 3.6033721 38
1.482035 1.0082285 3.7867508 9
1.6254356 1.0134132 3.7359416 9
11.783473 1.0382423 3.6415651 10
12.060639 1.104139 3.6419237 10
12.279748 1.0413178 3.6645725 10
12.423838 1.1471504 3.6529834 11
12.889351 1.145165 3.6903925 17.5
15.497904 1.1218355 3.6749885 44
12.705988 1.2106986 3.6835868 14
13.156452 1.2808775 3.7022259 16
13.33634 1.3222413 3.7411299 24.5
13.886219 1.2909168 3.7248316 17
15.361059 1.354933 3.6726277 44
1.1423419 1.5531182 3.6419261 9
1.3491001 1.4668919 3.7363007 10
2.7139463 1.5132233 3.6088097 8.666667
13.869919 1.4748803 3.7486284 18
14.080806 1.4896433 3.7744193 22
14.729261 1.4379566 3.7791002 24
14.887097 1.4839021 3.7892456 27
15.346636 1.4089023 3.7635815 38
1.0633159 1.6659157 3.7892058 9
1.4164591 1.6277902 3.7024415 9
15.359898 1.6570815 3.7507126 30
15.571948 1.7781631 3.6809816 164
1.7077212 1.9909143 3.7068474 9
2.1068387 1.9012678 3.7713189 10
2.287729 1.9366533 3.755583 8.916667
2.7385302 1.8759332 3.7732406 8.75
15.263793 1.8287051 3.7280049 40.5
17.08654 1.9101505 3.7002122 15
1.5597734 2.0703607 3.7268791 9
1.8498807 2.1204178 3.7243111 10
2.1806781 2.0753827 3.7136059 8.75
2.3452849 2.0991886 3.7175419 9
2.4908733 2.0720997 3.7566869 9
2.7176483 2.1122804 3.7242546 8.666667
1.4958273 2.3306608 3.7418051 9.5
1.6874244 2.2416172 3.6884341 9
2.1870322 2.2394209 3.6947885 9
2.2848253 2.2311988 3.6845379 9
2.4892612 2.2821949 3.6919951 9
2.7747889 2.2149053 3.6968589 9
2.8567157 2.2514431 3.6838055 9
3.9149776 2.254226 3.6891334 9
4.1397724 2.384706 3.6734884 8
1.5455525 2.5756428 3.7217627 10
2.9297047 2.5139761 3.6441545 8
17.017765 2.4688203 3.6702619 47
4.5487776 2.6352301 3.7414062 8
1.4840573 2.9478836 3.7820199 8
1.4520552 3.0713346 3.7073703 9
5.1611013 3.0498779 3.6464071 8
5.3871021 3.1950049 3.7144284 8
17.512321 3.1370487 3.6964192 13
5.8057737 3.4451678 3.7870207 8
6.3674936 3.8322351 3.6421192 8
1.2368178 4.7780848 3.6823344 9
8.2219381 4.7178159 3.7574401 8
14.763096 4.7061086 3.6499419 41
1.1900041 5.0703678 3.603116 9
1.1477246 5.2702699 3.7719605 9
18.078074 5.5995998 3.6598601 13
13.389004 6.527916 3.6412024 79
13.425987 6.6101618 3.6693089 75
13.618248 6.6194878 3.7288084 67
13.334639 6.9420547 3.6153479 70
13.381241 7.1761322 3.6918423 75
13.406222 7.1883345 3.7024536 85
13.213061 7.5086293 3.6429653 81
13.235712 7.6308746 3.6333978 65
13.114384 8.1227913 3.6245556 70.5
13.141571 8.2580671 3.6354687 68
13.048218 8.7487249 3.6141019 58
20.297398 10.31563 3.7160053 14
13.636242 10.76705 3.6926355 27
12.064184 13.980558 3.6013131 16
23.757652 -14.88926 3.8968081 33
36.904224 -12.140064 3.9560912 58
7.342485 -8.9404488 3.8056352 8
1.4588251 -8.4747667 3.8241932 10
1.4624329 -8.3012285 3.9526148 6
7.3353152 -8.389782 3.9098554 5
10.729586 -8.1656408 3.883683 6
12.977079 -7.6845889 3.9175346 4
7.038085 -7.5672607 3.9732733 19
7.1689157 -7.2927623 3.9499614 5
17.076614 -7.3956833 3.8370981 14
16.051044 -7.1468997 3.8053229 8
16.929808 -7.0859332 3.9431326 30.333334
18.092525 -6.6034846 3.8822708 6
17.651361 -6.5589738 3.8452604 30
17.248362 -6.3046112 3.9902384 32
6.7572346 -6.0279851 3.8253961 7
17.170597 -6.1975999 3.9497104 33
6.7904043 -5.9937687 3.8321004 25
6.894412 -5.905261 3.9147711 5.5
17.024948 -5.8270822 3.9436741 17
17.288603 -5.8202739 3.9556072 86
0.94558334 -5.635941 3.8110108 19
6.8786573 -5.7297611 3.8635433 6
17.106722 -5.786932 3.9657063 16
25.74888 -5.6814151 3.8713708 78
0.80251575 -5.4960623 3.870157 19
17.072079 -5.4211545 3.9601431 17
16.99758 -5.2825136 3.9347885 14
0.80349183 -5.0003185 3.8576965 11
25.892609 -5.010097 3.8960185 37
16.937916 -4.9056273 3.8783779 33
17.198708 -4.8799515 3.9913886 6
0.76812959 -4.6906343 3.9279032 18
16.777046 -4.6905975 3.830584 39
16.859489 -4.7925987 3.8971162 9
17.002596 -4.6980486 3.8751493 34
2.4301436 -4.44309 3.9301271 4
2.6384575 -4.4588394 3.96754 9
6.6369729 -4.5015202 3.8672936 6
16.807264 -4.4369903 3.9553094 26
0.30764019 -4.3259883 3.9236486 11.5
0.52748036 -4.2884083 3.8630805 5
16.781082 -4.3856854 3.8243515 7
16.976734 -4.2777238 3.8656979 6
0.49932516 -4.15662 3.9875264 5
0.7258203 -4.1098409 3.870163 8.833333
0.9302032 -4.0035906 3.8571489 6
2.7585237 -4.1911421 3.8192389 6
2.8073628 -4.1359186 3.8151248 4
6.5320621 -4.0486546 3.918642 4
0.92622805 -3.8871469 3.9138591 8.333333
1.1410525 -3.8900895 3.8280463 7
1.2012244 -3.8516231 3.8017936 6
1.8872908 -3.9698634 3.8123357 7
3.3245554 -3.8761098 3.8921349 9
3.4744673 -3.8066287 3.8993888 25
16.709841 -3.8973074 3.8191974 7.6666665
16.834469 -3.8230302 3.8608179 7
1.0990955 -3.7494302 3.9026442 11.5
1.8327415 -3.7165461 3.8118782 3
3.6236961 -3.7276616 3.8551526 14.5
16.869425 -3.7181849 3.9176323 7
1.2616507 -3.5876644 3.8793449 5
1.4905089 -3.5596278 3.8519356 10
1.7121154 -3.5840721 3.849576 3
6.3833952 -3.4427512 3.9931836 5
16.664587 -3.4996824 3.8438663 12
16.630148 -3.3799574 3.8365622 7
6.2751918 -3.060452 3.8012559 5.5
16.821882 -3.0796294 3.8479187 18
6.2301998 -2.8622196 3.937099 5.25
2.4923592 -2.7353208 3.8951101 8
6.1890111 -2.6130776 3.9261405 5
-7.551168 -2.5798149 3.9413028 17
6.1220016 -2.2751708 3.9692149 6.25
7.0364799 -2.3664274 3.8455274 31
16.566689 -2.1956804 3.8190739 8
2.3664663 -1.8973538 3.8721602 8
7.1541996 -1.876569 3.9398565 7.166667
5.989562 -1.7633781 3.9569483 10.25
6.5178475 -1.6501337 3.8436813 6.3333335
7.1290231 -1.7088242 3.9383335 8.333333
7.2076921 -1.6998074 3.9547615 8.333333
6.5219574 -1.5762424 3.8955686 5.0833335
6.9631853 -1.4326463 3.8803041 7
7.0450878 -1.452553 3.8921645 9.25
6.9815278 -1.3195463 3.953732 6
7.0337429 -1.3001919 3.9462333 11.25
6.9565697 -1.073784 3.9103425 22
7.0327129 -1.1442955 3.9075952 19.333334
-5.1891155 -0.95643938 3.9674976 9
6.9711146 -0.87215972 3.9055653 9.416667
7.0346928 -0.91428244 3.8779125 19
6.9374609 -0.60108709 3.9240935 10
6.9266982 -0.50056118 3.9004433 12.75
-3.982316 -0.22371835 3.8174653 20
6.7865853 -0.24030554 3.9149747 12.166666
6.8520622 -0.33619183 3.9069071 12.75
6.7570534 -0.075658768 3.9172881 19
6.8250952 -0.13691927 3.8318746 29
0.49172997 0.094090328 3.9067743 9
6.7369957 0.12468553 3.9132116 17.333334
-3.236028 0.28729957 3.8008299 5
0.71809733 0.24897344 3.9527452 9
6.6936541 0.25189036 3.858182 5.5
6.8397598 0.30712205 3.8872256 5
7.0336022 0.33671847 3.8534143 4.1666665
7.2815003 0.37339136 3.9090548 4.25
7.4128199 0.38514763 3.8867519 4
-3.0158901 0.4314428 3.9510314 5
1.0322582 0.45087209 3.9635122 9.333333
1.3095931 0.62298542 3.8475151 10
1.9701865 0.70893764 3.9370859 9
1.7044775 0.86404383 3.8865659 9
15.789324 0.81067133 3.8527417 36
16.804232 0.89962888 3.9272609 15
2.4765496 1.1569395 3.9371617 8
15.665961 1.149559 3.862807 37
0.8379674 1.2860181 3.8557882 9
2.2073987 1.2410932 3.9177926 8
15.335716 1.3193061 3.855778 38
1.605099 1.4848781 3.8007746 9
14.46014 1.4382896 3.8168788 29
14.77059 1.4569037 3.8062348 24
15.164185 1.5113581 3.865351 32
2.6283128 1.746693 3.8132336 9
14.767504 1.6381406 3.8176191 24
15.44418 1.7379225 3.9067702 137
2.4543085 1.8086257 3.8031969 9
2.640543 1.87152 3.8052237 9
1.5217987 2.2828398 3.8516736 9
4.0687542 2.341712 3.8806617 9
4.3626571 2.5242083 3.8969202 8.333333
4.5025606 2.6263189 3.831002 9
4.6748629 2.7254949 3.9408596 8.5
4.9382401 2.8991489 3.9608657 8
5.0628643 2.9755957 3.8880272 8
1.4571269 3.0194819 3.8077736 9
16.84346 3.1357465 3.9545989 40
5.6659017 3.3589635 3.9013305 8
16.833527 3.2628577 3.8766351 46
17.501429 3.3080153 3.876977 15
5.9906769 3.5552266 3.9957759 7
6.0343504 3.6077628 3.8984439 8
17.536318 3.6396334 3.9274914 15
6.6541672 3.9808118 3.8648331 8
6.8862996 3.9156849 3.9365156 8
1.2439239 4.7094474 3.9602773 9
14.728125 4.6731076 3.8743758 40
14.833563 4.665905 3.8266826 38
1.2066696 4.9192214 3.8742039 9
1.1619856 5.1699739 3.9034636 9
18.092663 5.5591588 3.8171687 12
14.294205 6.6005464 3.8830783 17
21.38846 9.7182503 3.9740193 8
20.364634 10.275592 3.9179242 10
13.572224 10.892865 3.8823643 34
9.2763004 15.182031 3.9605899 7
9.4195585 15.055619 3.9604509 5
28.535185 -16.721825 4.1329088 99.5
22.19323 -15.996875 4.19031 36
23.694471 -15.555549 4.1100688 44
23.826553 -14.647895 4.0373888 36.5
1.6942945 -9.4638386 4.0608511 9
7.5478926 -9.5679407 4.0379229 6
1.4767656 -8.8870134 4.1266246 10
7.3150835 -8.9023476 4.1576757 23
7.3240023 -8.7659292 4.1904635 19
12.060917 -7.9868646 4.0821347 4
1.3139195 -7.6845913 4.0954313 9
12.263165 -7.7822976 4.0444117 4
7.2110615 -7.2201428 4.0339851 7
1.1967819 -7.1061935 4.1404901 7
7.1361856 -7.1339545 4.0456305 6
16.763649 -7.0442677 4.1859541 33
15.295437 -6.8576169 4.1323953 31
16.931908 -6.9276342 4.1237741 36.5
1.1555247 -6.7269325 4.0133815 12.5
17.257679 -6.6084671 4.0296993 33
18.711058 -6.6821656 4.1832938 28
15.120747 -6.4560833 4.0181584 36.333332
17.280964 -6.5906301 4.0251522 35
19.757736 -6.5094481 4.0344868 10
1.0507468 -6.2833905 4.1039429 11
6.7977509 -6.3074002 4.1810999 7
6.8441687 -6.2534561 4.1577792 12
20.110073 -6.3001318 4.0217652 32
6.7604313 -6.1005931 4.1974196 6
17.0592 -6.0574245 4.0674329 36
21.836014 -6.097919 4.1008501 19
6.71456 -5.9602504 4.141325 5
0.93448377 -5.6618023 4.0506554 11
1.0056338 -5.6380968 4.1984072 7
6.6675291 -5.6740017 4.1916399 9
6.8975458 -5.69662 4.0520067 5
25.68087 -5.7200208 4.0232325 64
6.6641083 -5.5337048 4.1665559 8
6.8336706 -5.5682182 4.0585098 5.5
6.6359396 -5.3677197 4.154922 7
6.8032351 -5.3446345 4.0376463 5
-1.026124 -5.0414977 4.184473 4
6.6742773 -5.0256195 4.0895743 7
6.5123062 -4.807899 4.1269331 16
6.6243792 -4.8389564 4.0613441 6
17.111511 -4.8321853 4.0445232 9
25.755495 -4.9407616 4.1758294 38
2.5015106 -4.4677715 4.1064572 6
2.6725061 -4.4568253 4.1557755 6
6.2763577 -4.504333 4.1696301 4
6.4083886 -4.5704741 4.189671 4
6.6204786 -4.4761019 4.0275788 5
0.16106248 -4.372726 4.0131531 5
6.3783689 -4.2073917 4.1339526 7
6.4488664 -4.2876592 4.1198611 6.5
6.3646989 -4.0679822 4.1654778 11
6.5361285 -4.0735683 4.0753016 4.6666665
3.3832791 -3.8854463 4.0597668 5.6666665
3.6636534 -3.8366406 4.1107078 5
6.2966423 -3.9187808 4.1633749 4.5
6.4419403 -3.8751395 4.0971584 6.25
10.89744 -3.819417 4.1037879 6
3.6710255 -3.7816005 4.1472659 7.5
6.2840633 -3.71451 4.1435261 7.125
6.4690838 -3.6972697 4.0794992 6
16.635796 -3.7794552 4.0478783 38
6.2736955 -3.5051155 4.1279368 5.8888893
6.4351454 -3.5679369 4.0446787 5.5
16.530918 -3.4896927 4.147635 38
6.1619129 -3.2664502 4.1521449 5
6.2724037 -3.3632312 4.1154699 5.9166665
6.1626449 -3.1076066 4.133625 5
6.2386694 -3.0947452 4.1138039 6.25
6.9962273 -3.1711788 4.1154709 25
2.474813 -2.8217402 4.085639 7.5
6.1646767 -2.8952584 4.1392341 7.3000002
6.35816 -2.8449759 4.0718799 6
6.1317582 -2.7113256 4.1195769 6.8333335
5.9943666 -2.520581 4.1178613 5
6.0989022 -2.5136847 4.1081619 6.4285712
6.3023672 -2.5694025 4.0632057 7
6.0872927 -2.3042152 4.1027975 17.35
7.1071606 -2.3094831 4.0842505 24.5
5.9978218 -2.1801915 4.017571 6.6666665
6.0761933 -2.0704563 4.0710602 7.5555553
6.2154174 -2.151196 4.0179901 7
2.340894 -1.8454146 4.1261654 8
5.9263544 -1.9293244 4.1200376 3.5
6.0761423 -1.9388319 4.0417242 13.5
5.9496694 -1.7268171 4.0633111 6.8000002
6.1050048 -1.6386113 4.0454254 5.5
6.2448497 -1.6358216 4.1323624 2
7.2768564 -1.6705003 4.1269588 6
6.3484964 -1.5732477 4.0694752 5
6.546494 -1.5770792 4.0691738 4.6666665
7.1672525 -1.4856719 4.0706558 7
7.2163367 -1.5926769 4.0399666 6
7.1703138 -1.3069597 4.169333 4.5
7.2199807 -1.36754 4.1710596 6
7.2001972 -1.0269778 4.1985826 6
7.0312634 -0.88471222 4.110651 5
-4.8154697 -0.72216535 4.1124644 6
-4.7836828 -0.7202521 4.0453267 6
7.0913405 -0.74875683 4.1620126 4.25
7.1144524 -0.49721193 4.1537724 5.5
-4.035738 -0.28560746 4.1149654 19.5
-0.014908314 -0.20863944 4.0641136 10
6.8832922 -0.27317381 4.017909 5.5
-3.8262651 -0.18975586 4.1854477 21
-3.6627183 -0.043537773 4.1430206 12.5
6.8644309 -0.19107294 4.0348926 9.666667
-3.5429609 0.0353432 4.1330047 15
-3.3075974 0.15389428 4.153327 15.5
6.9471636 0.15598854 4.1803336 6
-3.1313198 0.26853114 4.18927 21
1.1184089 0.5007394 4.1692562 10
1.3277849 0.62750101 4.0918689 9.333333
1.4325857 0.69442481 4.1883602 10
1.8518872 0.76935309 4.1850781 8
15.763419 0.69377071 4.0158949 34.5
1.0183326 0.94231784 4.0062056 10
1.8177066 0.9341116 4.1627264 8
15.738786 0.80808163 4.0555921 36
1.7979202 1.1176729 4.0950851 8
2.1900926 1.1592228 4.0040383 9
2.2828505 1.204074 4.1762195 9
2.4444878 1.3062595 4.1897407 7.5
2.7673855 1.5258155 4.1750231 8
1.6965362 1.6050977 4.0754724 8
3.3056064 1.8440204 4.1713204 6
1.0659137 2.242975 4.1592817 7
4.360384 2.5159481 4.1123171 6.5
5.0824924 2.954303 4.1058569 6.5
1.4498606 3.0376828 4.082356 9
5.2480354 3.0668321 4.026793 7.5
16.842484 3.1092343 4.172965 40
5.5082064 3.2315421 4.08179 8
5.9081764 3.4989393 4.0767937 5
6.1928959 3.6801097 4.0393662 6
6.3422632 3.7878997 4.0249486 7
17.649559 4.1540499 4.0776396 13
14.685163 4.6785717 4.1090851 38.5
14.940845 4.7245617 4.1277895 37
1.1957142 4.9337387 4.0152059 9
17.878492 4.9733052 4.1594028 15
17.963907 5.4354639 4.158011 14
18.206047 5.7737479 4.0398359 12
1.0432769 5.9356794 4.1157551 9
14.183634 6.9782505 4.0614386 15
0.83395791 7.2944489 4.1444793 9
14.162426 7.4410439 4.1120358 43
14.067179 7.8237505 4.0254254 45
13.600739 10.663305 4.1318755 33
13.531013 10.900941 4.0503941 34
13.341804 12.237858 4.1994929 29
12.240051 14.121477 4.1622853 11
23.459358 -15.685811 4.2165728 65
23.687469 -14.827868 4.2950253 31
36.671864 -12.158378 4.3228126 71
8.2365685 -11.171175 4.3342519 36
7.5637136 -10.224568 4.2932363 13
37.010544 -10.202865 4.366488 62
7.4044666 -9.4721899 4.3618569 6
7.3475261 -9.0542698 4.3352103 8
1.476091 -8.5256958 4.3231249 13
15.972695 -8.0009565 4.365314 23
7.1549473 -7.9759994 4.3445096 5
12.404285 -7.8700042 4.3438315 4
15.910518 -7.8149548 4.3907809 24
7.0432553 -7.6850586 4.2469373 7.6666665
6.9955115 -7.5197701 4.270021 7
7.0097256 -7.4374042 4.2939954 6
1.1923339 -7.2300057 4.3354926 7
1.2288437 -7.008606 4.3944154 14
6.9532623 -7.1141858 4.2377295 8.333333
1.2561496 -6.9942398 4.2817726 10.5
6.9287024 -6.9278727 4.2848754 8
6.8784051 -6.6634917 4.2676497 7.3333335
15.179764 -6.745779 4.3632393 26
0.89978623 -6.2282648 4.3691154 3
6.7734318 -6.2773018 4.2306895 6.6666665
6.751904 -6.0746384 4.2437181 7
21.461355 -6.0651369 4.2481117 21
6.7043328 -5.8906603 4.2303867 6
0.90920055 -5.6507168 4.3236332 11.5
1.0152049 -5.6087666 4.352149 8
6.6344814 -5.6064005 4.2354465 4.5
25.559612 -5.7505503 4.332386 43
25.655254 -5.7591972 4.2907882 46
6.5986166 -5.4313297 4.2195659 5
6.6151772 -5.5543466 4.2614613 5
0.79826379 -5.2146735 4.2567534 3
6.5519967 -5.295032 4.2410955 5.6666665
0.71325994 -5.0422187 4.3937664 4
6.5448308 -5.1003456 4.263124 6.6666665
6.4747629 -4.8645644 4.2239294 5.5
17.311256 -4.8274269 4.2905865 6
6.4570436 -4.7097015 4.2564211 4.4000001
15.351075 -4.7810898 4.299933 45
17.281748 -4.7328677 4.3155274 7
0.61095381 -4.5872149 4.2899194 4
2.586112 -4.4170632 4.3836327 7
2.7371137 -4.4518309 4.3432369 7.75
6.3932824 -4.4151425 4.2168231 5
6.4466596 -4.4826584 4.2039156 5
13.195409 -4.421113 4.3041258 33
6.3764329 -4.3300438 4.2136703 6
6.4487028 -4.3965201 4.2866583 4
6.3672533 -4.105763 4.2174282 6
13.401213 -4.1934309 4.373116 20
3.3601434 -3.9081554 4.2610726 5.3333335
3.432162 -3.855835 4.3053427 13.2
3.670717 -3.8057084 4.2727385 8
6.3329864 -3.8844655 4.2578173 4
11.883391 -3.8231397 4.2317643 16
3.6786888 -3.7825425 4.3290544 3.6666667
6.2967749 -3.734545 4.2508278 4
16.598848 -3.7298496 4.2845206 45
6.2011466 -3.4987624 4.2284126 4
6.2520514 -3.2090445 4.2185369 5
6.2256651 -3.1159985 4.2224693 5.5
2.4644809 -2.8202465 4.2195215 8
6.2098565 -2.9569931 4.2277403 6
16.422516 -2.9784341 4.3053861 38
2.4826336 -2.7235656 4.3038416 7.25
2.428591 -2.5566678 4.3479147 7
16.340918 -2.4686391 4.3088732 37
2.3508854 -2.2258453 4.3443465 10
2.4702344 -2.3479912 4.3268938 4
6.0747433 -2.2466767 4.214695 5
6.999413 -2.2714419 4.246995 33
7.1868339 -2.207922 4.3772607 25
7.2490921 -2.2663164 4.312808 24
2.3572943 -2.1275842 4.271462 8
2.4259491 -2.0796959 4.3629327 6
6.0455508 -2.172879 4.2144923 4
2.321346 -1.9483516 4.3223157 7
2.2863498 -1.7437056 4.3717566 7.5
-5.9956141 -1.5032521 4.2743344 14
2.2616572 -1.4975779 4.2878976 5.5
16.069904 -1.4068662 4.3347459 104
-5.7847462 -1.3442625 4.2176061 8
2.270987 -1.3922381 4.3571153 5
7.0668287 -1.2035805 4.2589149 5
7.2401223 -1.2840122 4.2645688 6.6666665
-5.212451 -1.0546906 4.3291316 14
2.1971178 -1.099959 4.3290939 5
7.1746488 -1.141562 4.3066521 22.5
7.2269707 -1.0361323 4.2895989 14
-4.8580456 -0.78231823 4.2900019 22
-4.7266064 -0.76556665 4.289782 19
2.0684628 -0.60908186 4.351109 5
2.1248341 -0.5031963 4.370748 5
7.1514401 -0.55613244 4.2151585 4.5
-4.0668125 -0.31105334 4.3352604 14.75
2.0588434 -0.39078671 4.3044453 6
-3.8795612 -0.1543453 4.2354641 21
-3.6048899 -0.057827353 4.326076 9
2.0216591 -0.15696813 4.3018475 5
6.9736147 -0.1358666 4.2742739 15.5
7.0201344 -0.15597993 4.3403859 9.333333
-3.4351149 0.061749756 4.3063364 10
-3.272573 0.17532021 4.2808051 18
0.68815905 0.17307463 4.3054075 6
1.9778645 0.08837232 4.3127275 6
2.0130713 0.076066449 4.2616239 5
6.9457273 0.067431927 4.2157288 22
7.0135527 0.15108943 4.3718209 6
0.69669104 0.2113598 4.2056365 9
0.89847392 0.31746104 4.2867246 7.1666665
1.9198695 0.39443898 4.3018122 9
1.1003397 0.46207103 4.2922239 6.6666665
1.9209871 0.50066739 4.2761731 6.6666665
1.3772058 0.62962335 4.2879877 6
1.5226154 0.73656315 4.2535682 8.1111116
1.8528662 0.78064668 4.3106732 5
15.769257 0.71260113 4.2585773 31
1.6673523 0.8201651 4.2625246 6.5
1.8687496 0.89598793 4.2931132 4.8888888
15.678834 0.80467701 4.260571 40
1.7983184 1.1676086 4.3573756 5
1.9035771 1.0984321 4.2684546 6
2.0713701 1.0380907 4.2043338 6
2.2180288 1.1319518 4.2102013 5
2.3626869 1.250555 4.2132459 8
1.7775362 1.4751363 4.3068972 5
1.7143767 1.7973911 4.3435869 4
2.9047654 1.6051852 4.2018709 8
3.1034174 1.7144518 4.2109408 5
15.363212 1.7038558 4.2327437 27
1.7005541 1.8536328 4.3353305 4
1.6312224 2.1278367 4.3432312 5.5
0.79425144 2.3537486 4.2995744 7
1.161185 2.269788 4.3778806 7
0.8381443 2.4310989 4.3869271 8
1.575054 2.5162749 4.3186321 7.5
1.5223634 2.686882 4.3000832 8
4.6721883 2.7176545 4.2023716 6
1.487973 2.9063027 4.268208 8
1.447989 3.1654727 4.363564 4
16.841545 3.0837381 4.3959723 44
1.4216113 3.2236326 4.3013864 7
1.4249933 3.4874899 4.2975178 6
1.3028679 3.7588634 4.2385421 8.5
2.5750365 3.8524985 4.2034345 7
1.3505611 4.0605073 4.2786365 5
1.2959871 4.349947 4.2599173 6.5
1.2479229 4.4311461 4.2581034 8
14.748209 4.6773872 4.2753105 40
14.892497 4.6481919 4.364996 36
17.893072 4.9734578 4.2811389 12
1.1441731 5.335784 4.2872715 6
1.0811713 5.7190919 4.2443581 9
14.274994 7.1871142 4.3842883 7
12.24868 14.040604 4.2637639 7
12.150051 14.247949 4.3726525 32
23.502327 -15.484173 4.5444317 65
23.858841 -14.616663 4.4549184 35
23.780464 -14.57697 4.4364104 50
11.28689 -12.301046 4.5720916 19
36.363205 -12.382245 4.5714669 59
36.454128 -11.978309 4.4809179 74
37.614445 -11.522529 4.4090672 47
1.5285404 -8.4772434 4.5677805 6.5
16.211065 -8.2363529 4.4662967 18
13.418598 -7.6148109 4.4940042 5
15.882196 -7.7986989 4.4691319 8
13.790846 -7.4936223 4.4895997 6
14.536395 -7.46561 4.574429 6
15.707726 -7.5085988 4.5020905 10.333333
14.12937 -7.3237638 4.4366813 7
14.484587 -7.3736877 4.5786638 5
15.095465 -7.2666354 4.5315375 7
1.2847028 -7.0206075 4.5167069 14
15.95629 -7.1039944 4.5600457 9
16.847717 -6.924521 4.4176502 33.5
15.139465 -6.6302013 4.4443874 12.5
16.540033 -6.7923713 4.5989881 9
15.157245 -6.4713621 4.5674028 27
0.88929915 -5.7456584 4.5477114 3
23.396439 -5.7931767 4.4378877 28
0.96435726 -5.5987978 4.5202336 4
16.282177 -5.5195231 4.5176392 7
16.875324 -5.1042109 4.5804462 21
25.663868 -4.8553367 4.5689392 83
2.7523103 -4.4209547 4.4926834 5.5
2.8077607 -4.4658089 4.5280542 4
16.750418 -4.5252075 4.4434848 38
2.7688799 -4.3931308 4.5151815 9.5
2.8139727 -4.3681936 4.5653586 6
16.745739 -4.3210335 4.582572 21
16.67136 -4.0919008 4.4862833 38
3.3793764 -3.8931215 4.5173464 8
3.4558861 -3.8239164 4.5124784 18.333334
3.6874976 -3.817467 4.4549093 7
16.625916 -3.9633777 4.5988579 12
3.4802194 -3.7867196 4.53128 22
3.7066193 -3.7469571 4.542171 3
16.578455 -3.6087039 4.4474573 37
16.547739 -3.5064912 4.5836163 17
16.491249 -3.2229846 4.5786185 11
16.314323 -3.0646408 4.5496168 16
16.48737 -3.0583847 4.5972595 10
16.467684 -2.8779974 4.5700274 24
16.285553 -2.708266 4.5883923 8
2.3286684 -2.4214017 4.4715919 9
2.4805379 -2.5998337 4.4186563 5
16.24501 -2.5816634 4.5747828 9
7.6398849 -2.3088665 4.4990187 21
7.0386667 -2.127636 4.4612651 23
7.2610035 -2.0800526 4.5500803 6.5
7.6136718 -2.1337447 4.522058 3
-6.5537519 -1.9214536 4.5254769 13
2.3155086 -1.9924645 4.4332032 9
2.2639878 -1.7117219 4.4276876 4
2.2096615 -1.3580096 4.438385 16
7.1293306 -1.2087877 4.4249854 5
7.2290545 -1.2146142 4.4792895 9.5
7.1270576 -1.133557 4.5030293 10.666667
7.2481928 -1.0066397 4.4033279 7
-4.7354946 -0.80808318 4.4857445 5
7.2120161 -0.95342106 4.5443454 4
-3.9408164 -0.27861544 4.5039148 9
6.9340887 -0.20318465 4.507587 4
6.8751893 -0.11291944 4.4304218 12
7.0606127 -0.17011338 4.4990244 4.5
7.0238175 0.11724641 4.5262585 9.333333
1.2343752 2.3983188 4.4286218 8
0.80537987 2.4908204 4.4062386 8.5
0.94103646 2.628406 4.416995 8
17.464266 3.3739109 4.5576301 14
17.557463 3.7794471 4.5437417 11
17.597691 4.0717692 4.4776611 15
17.636274 4.2047462 4.5347061 8
14.725322 4.6187835 4.4892831 28
15.025886 4.7262316 4.5027232 30
14.588953 5.0981388 4.5845928 17.5
17.996193 5.2575145 4.4274597 6
14.325168 6.4459648 4.5883536 16
14.179332 6.9811592 4.5963821 10
14.076933 7.7174945 4.5773396 20
14.071095 7.8691158 4.5860925 16
13.954107 8.3802595 4.5631156 16
13.887388 8.8069849 4.5367517 22
13.907483 9.0405493 4.58044 46.333332
13.338041 11.896537 4.4278522 39
13.177457 12.547673 4.5944433 7
12.087014 14.170924 4.4513907 35
12.631357 16.084293 4.5417504 22
4.1069927 16.911951 4.4995689 30
3.7958145 17.710419 4.5885391 21
23.497604 -15.510062 4.6196651 74
23.736935 -14.844572 4.7384915 25
9.7420835 -13.414252 4.6541414 34
1.9826446 -11.340392 4.7617292 9
2.0631957 -11.241636 4.7705412 8
12.630625 -10.911381 4.7270513 12
37.127148 -10.180422 4.665029 57
1.8152525 -9.8284225 4.7767658 7
1.5389273 -8.5307369 4.7341576 12
15.517721 -7.3638906 4.7435517 5
15.647031 -7.3335705 4.6864996 10
1.1809698 -7.0487905 4.7307434 7
1.2483803 -7.0511374 4.6048789 6
15.874559 -7.0872173 4.6098027 6
16.908794 -6.9071522 4.7081785 8
15.241897 -6.7077732 4.6659813 11.333333
17.182198 -6.7455339 4.6429334 28
15.139711 -6.4764185 4.7361794 22.5
17.180645 -6.5445023 4.7243271 10
17.222126 -6.5867248 4.7492514 9
17.022141 -6.289432 4.6771307 16.5
17.051088 -6.1062751 4.7143044 10
17.05262 -5.9637146 4.6272058 16
23.22394 -5.8090191 4.7821484 32
16.222698 -5.6841731 4.6226583 5
16.938705 -5.6572599 4.6215386 17
17.016777 -5.6364222 4.6788774 10
24.281986 -5.6234851 4.6156964 35
0.69885552 -5.5915508 4.7468419 3
16.907984 -5.5337448 4.646914 15
17.031841 -5.5579238 4.6529226 18
16.986279 -5.2603354 4.7328806 13
25.585506 -5.324729 4.6485887 67
16.835804 -5.1613951 4.6466398 15
16.78871 -4.8633838 4.6359482 18
16.942078 -4.8179011 4.7177272 9
16.782444 -4.7609119 4.6194 26
16.851282 -4.6171851 4.6648564 10
17.148138 -4.6397581 4.6650977 59
16.816906 -4.5994549 4.6456494 21
2.8205216 -4.3791676 4.7442684 8.333333
16.644836 -4.132987 4.6398888 9.5
34.28056 -4.054626 4.7254982 69
3.7050941 -3.8241475 4.6862702 5
16.644833 -3.9862003 4.6249824 10
5.5179067 -3.6063895 4.7613945 29
5.9651437 -3.6538095 4.7344832 4
16.720842 -3.6956527 4.6783004 8
16.503431 -3.5641618 4.6322165 10
10.329843 -3.2409115 4.6391969 11
16.54355 -3.3574092 4.6231799 9
6.8298311 -2.9498162 4.684196 20
9.4452543 -2.9351497 4.6583104 6
6.8547764 -2.6746588 4.6940598 13.5
6.9286137 -2.4610176 4.6932416 38.5
6.9391527 -2.3704357 4.6098495 35
7.1178756 -1.1012361 4.6695657 10.6
7.2024441 -1.0110078 4.6525221 16
2.0601051 -0.91808784 4.7407165 34
7.1842442 -0.95594162 4.7716856 9.666667
7.2434196 -0.94133782 4.7838664 4
2.0056205 -0.48865086 4.6375074 34
-3.9317057 -0.34519553 4.7553043 4
6.8735952 -0.11423098 4.7561827 14.5
7.0486588 -0.17087427 4.7462654 8
6.900732 0.064655758 4.6425915 11.5
7.0261455 0.126846 4.7163115 8.375
1.6703708 0.64390278 4.7185979 6
1.5017219 1.6834412 4.765604 8
16.982622 2.6779015 4.7534246 84
1.3093355 2.9131372 4.7323799 5
16.840225 3.0570762 4.6258035 37
16.738628 3.251936 4.7890368 67
16.782291 3.6094534 4.7434182 32
14.465417 5.7604876 4.6514893 10
14.706512 5.8559651 4.7116742 79
14.562663 6.1686573 4.6935978 95
14.366652 6.4935951 4.6398849 15
14.587084 6.529212 4.7452588 96
14.434869 6.7817459 4.6657367 99
14.204412 6.9768472 4.6502018 8
14.186643 7.2186141 4.6362205 10
14.130698 7.4605203 4.6274734 10.333333
14.096862 7.9533076 4.6160722 13
14.054438 8.5915308 4.6440835 13
13.900518 9.6251373 4.7153163 30
13.247935 12.262875 4.7878661 17
13.289787 12.417216 4.6013861 11
13.133547 12.969024 4.6280394 7
13.162297 13.175394 4.6282964 7
12.17314 14.318169 4.7209611 32
12.044549 14.536627 4.6618562 14
4.1326094 16.832916 4.7865677 14
23.895412 -14.585307 4.9027271 24
10.858228 -12.641301 4.9334264 23
36.480408 -12.023768 4.9172368 67
13.431037 -10.984139 4.9267101 8
13.557483 -10.643461 4.9947433 5
36.830589 -10.05287 4.9171934 59
1.6771541 -9.9205666 4.930799 17
14.662333 -9.6919832 4.805057 11
1.3769131 -8.4349356 4.8408847 10
1.4906322 -8.47474 4.9395528 5.6666665
0.97170854 -7.1016417 4.9924436 3
1.1823664 -7.0590296 4.867033 5
1.2303483 -7.0288754 4.9035912 9.5
0.99251008 -6.9176822 4.9392371 3
1.2661908 -6.9968195 4.918561 6
15.160376 -6.4596758 4.9421673 35
15.217745 -6.1871018 4.9222298 5
0.74127936 -5.6163459 4.9064665 4.6666665
24.397715 -5.5943933 4.9921541 26
25.186197 -5.2192678 4.8081741 39
25.648073 -4.9649024 4.9903979 78
2.8736384 -4.3660612 4.9163795 7.8333335
3.1844673 -4.2352333 4.9941382 3
3.3150721 -4.1270108 4.9789529 12.5
3.4097204 -4.0379238 4.9781113 8
3.7067783 -3.8109241 4.9179006 7.5
6.5572939 -3.8688378 4.9436374 13
3.694927 -3.7670016 4.8451447 7.75
5.4875622 -3.5122623 4.9523087 17
7.0185933 -2.3199072 4.8137255 39
7.3311272 -2.2843237 4.9418225 3
7.2078838 -2.182085 4.9129028 3
6.9602184 -1.1430776 4.8097444 3
7.1428819 -1.0529462 4.8403683 23
7.1664672 -0.94497973 4.9445763 6.8333335
7.2366629 -0.904037 4.9094629 6.25
-4.0098901 -0.36290684 4.9676552 3
6.929266 -0.15636826 4.8815989 9.5
6.9514608 0.047743965 4.8904037 15.5
7.0134268 0.13183135 4.8487434 7.5
1.569736 0.55951691 4.9753528 4
1.6558348 0.65188986 4.9680562 6
1.4491682 1.7865041 4.9214001 7
16.99568 2.6958952 4.8485041 86
1.2971754 2.945394 4.8998847 6
1.0953202 4.1159306 4.9399266 6
11.035734 6.9397659 4.9631004 16
13.773196 9.7881145 4.9324174 49
13.815598 9.7582397 4.944622 39
20.279829 10.646474 4.832078 10
13.168335 12.19086 4.9270201 9
13.233386 12.280165 4.8592844 8
12.2664 14.214009 4.8753524 15
11.971035 14.65146 4.8083711 10
10.278624 -13.013754 5.0539613 21
10.358793 -12.907073 5.0117955 14
11.041163 -12.675406 5.1681819 20
36.307785 -12.445694 5.1730776 93
36.719666 -12.02167 5.1177621 75
13.69775 -10.338445 5.0462646 8
1.7424998 -9.932704 5.1068258 10.5
14.134224 -9.9973927 5.1088786 6
1.4591043 -8.4813013 5.039259 4
1.1522408 -7.085393 5.0507941 12
1.2767451 -7.0079403 5.1068444 4
15.18118 -6.5476599 5.0445147 17
15.199116 -6.3416257 5.1497993 30
15.230731 -6.2340984 5.0708799 9
0.76687813 -5.6401968 5.1020961 10
0.76726723 -5.5126376 5.0358386 3
25.606247 -5.2708044 5.0069914 57
2.8838146 -4.4065881 5.048172 6
2.920557 -4.2711191 5.0941939 18.299999
3.0257528 -4.3387003 5.0141516 10
3.2039447 -4.2006869 5.0381575 5
3.0557868 -4.0734096 5.1318855 5.8333335
3.385551 -4.0480709 5.0045748 8
3.1064706 -3.9661033 5.1070089 3.5
3.2996697 -3.9034553 5.1171598 4.6999998
3.431098 -3.9281936 5.0836482 13.5
3.7328911 -3.8117499 5.1857615 3.5
3.7160861 -3.7863855 5.0998573 6.5
5.6449881 -3.451128 5.1279364 9
6.6472988 -3.5783558 5.035758 8
21.94603 -2.9621623 5.1857052 12
6.9758444 -2.457788 5.160727 4
7.0513058 -2.4695556 5.0788536 8
7.2817564 -2.2053299 5.1471272 6
7.1961989 -2.1914425 5.1307602 9
1.9353418 -1.6643201 5.135303 5
2.0484014 -1.6935132 5.0590591 8
1.9815533 -1.0789731 5.1385841 11
7.0733061 -1.0656711 5.0667944 6.8000002
7.1428537 -0.87114233 5.0983124 7.8125
-4.8997803 -0.74545944 5.1699438 3
1.734674 -0.64794493 5.0345035 3
1.7294571 -0.46106398 5.0457578 3
1.8306611 -0.50264513 5.1348057 5
1.8527819 -0.39992934 5.1422663 18
6.9826341 -0.14553928 5.0350814 17
6.9453354 0.13523363 5.0974627 6
7.0798965 0.1524148 5.1051946 4
1.1496017 0.74821728 5.1776805 7
1.6121593 0.62426633 5.0418768 6
1.3721948 1.7025357 5.1749196 3
1.4075717 1.7973557 5.1385427 6
1.2230744 2.9321532 5.0697846 8
17.804329 2.8138721 5.0859199 34
5.3555565 3.4075911 5.1631789 5
1.0102913 3.9914708 5.1794558 3
6.2821951 3.9103734 5.1985965 10
17.779198 4.0929289 5.126049 37
6.6889715 4.2357936 5.1665931 13
6.9063649 4.3533301 5.1703305 9.333333
7.1078773 4.49228 5.1298556 11
7.311676 4.6151571 5.1348557 18
17.525602 4.7417531 5.0533195 35
8.0574865 4.8464656 5.1214995 16
8.380434 5.2703428 5.1151981 21
0.6757195 6.3564944 5.0956111 16
13.767547 9.7719326 5.0036554 38
13.83847 9.7374411 5.0595078 38
19.957968 10.630928 5.0889053 11
13.337113 11.89541 5.0854812 36
13.226369 12.273314 5.1430898 12
13.321797 12.430079 5.0592046 7
12.20503 14.303107 5.1132941 20
12.070126 14.54315 5.0783267 32
4.2154703 16.960001 5.1441064 7
22.494225 -15.495806 5.2328844 23
22.947571 -15.577415 5.2153373 32
10.823629 -13.0295 5.22296 7
36.439163 -12.551897 5.2374177 105
36.920296 -11.366867 5.2201343 76
36.660839 -10.145511 5.2032232 88
36.568054 -9.6710176 5.3795605 96
1.3827906 -8.4167385 5.3826756 17
1.1149017 -7.0938873 5.2484355 10
1.2350826 -7.1382756 5.3835888 3
15.177977 -6.3881674 5.2141304 35
15.248987 -6.2329006 5.3234577 7
2.952424 -4.2392635 5.2802691 24.5
3.4479027 -3.8531303 5.2964659 13.8
3.7077155 -3.8102412 5.2994127 5.25
3.730092 -3.7540402 5.3342819 6
21.899473 -3.0647421 5.269311 27
2.1075764 -2.5972414 5.3096752 10
18.972031 -2.5305271 5.2257257 65
7.2655635 -2.1482959 5.2958446 4
21.503372 -2.1387529 5.324007 18
18.54097 -1.8217348 5.3418231 34
1.924614 -1.6856806 5.3456268 8
-5.1617675 -1.1100442 5.3995256 6
6.9897327 -1.0121506 5.3146729 4
7.0620995 -1.0220561 5.2082129 7.25
1.753068 -0.83704615 5.3912091 3
7.1177592 -0.87166214 5.3323479 13.5
7.2059636 -0.83952743 5.3007283 8
1.8623364 -0.73545939 5.3336535 4
7.1455064 -0.70880258 5.3645649 12.6
1.7479713 -0.52792794 5.2659159 6
7.0804825 -0.52692181 5.3577585 11.125
-3.9177008 -0.32800794 5.2185249 7
6.9713092 -0.39173612 5.3866825 23
7.0834532 -0.26231712 5.3246584 16.25
-3.8765523 -0.10606033 5.3183389 3
0.12143874 0.078115642 5.2221823 7
6.9891872 0.15947355 5.3698521 5
7.0154181 0.13015711 5.2279429 7
1.57688 0.59337103 5.3722634 8
1.0930712 0.74528444 5.2988701 7
1.5745631 0.63651627 5.2819595 7
1.1738527 0.83978409 5.3234773 3
2.162262 1.406534 5.3124256 6
2.7908213 1.8438187 5.379086 9
2.8917246 1.8810022 5.3918729 26
3.055933 1.978812 5.2172856 8
1.2642751 2.1683264 5.3762813 3
3.3302155 2.1428933 5.3157501 6.3333335
3.496448 2.229881 5.3485861 18
1.2509387 2.4245975 5.3897152 3
1.1836936 2.7199199 5.3136978 3.5
1.2032905 2.9298701 5.2246647 9
4.6777697 2.9015989 5.35954 10.5
4.871438 3.0689433 5.2898731 13.5
5.0763984 3.1896093 5.2784824 9
5.1219883 3.276613 5.2611842 9
5.3638849 3.3380365 5.3035135 8.5
17.920238 3.2783515 5.2619634 22
5.5608978 3.4552574 5.2842031 8.5
5.7222738 3.5782075 5.2551527 14
5.9166121 3.7447441 5.2316055 9.333333
0.98111582 3.8957944 5.3827238 3
6.1090069 3.8386064 5.2222223 18
6.2761698 3.9312344 5.2294502 9
6.6683388 4.1857762 5.2039471 9
0.88256216 4.3607759 5.2673707 3
0.81082141 5.1193171 5.3033457 4.5
17.6481 5.0190234 5.3273878 33
0.75514269 5.2736707 5.343956 22
17.026897 5.4064722 5.3050418 30
0.33871365 8.8529215 5.3422589 22
13.781219 9.7487679 5.3134818 45
14.019219 9.7211637 5.2103229 30
14.279546 9.7620249 5.2427983 26
13.328446 11.821339 5.3390994 35
13.205588 12.155347 5.249639 32
13.127083 12.222377 5.2694397 7
12.201614 14.126602 5.2521701 14
12.141548 14.338818 5.3934035 33
3.6836488 17.651928 5.3761764 7
28.528334 -17.00493 5.4052043 51
23.615093 -15.449495 5.4489641 21
36.356583 -12.473717 5.460372 99
1.7102883 -10.157651 5.5076175 4
1.8014052 -9.8449526 5.4873276 5
1.1757689 -8.5352697 5.5072188 4
1.4520776 -8.4919672 5.4618816 8
15.629653 -7.3316135 5.4083452 11
