# .PCD v0.7 - Point Cloud Data file format
VERSION 0.7
FIELDS x y z intensity
SIZE 4 4 4 4
TYPE F F F F
COUNT 1 1 1 1
WIDTH 1309
HEIGHT 1
VIEWPOINT 0 0 0 1 0 0 0
POINTS 1309
DATA ascii
3.0786018 2.0392001 3.0512419 37.950001
2.9947028 2.6923289 2.9628329 9
2.7123287 0.23733628 3.4450965 11.666667
2.7892456 0.50361836 3.3828382 11.25
2.8558331 0.93874204 3.2736263 25.914288
2.5923598 1.3808467 3.364017 9
2.5701079 -0.15651894 3.5304465 19.625
2.5857449 0.041170478 3.4838445 20
2.3120201 1.5940914 3.2188303 9
2.2800853 2.5317597 2.8954992 9.5
1.9662017 3.9396048 2.5602708 27
1.7746892 1.3798342 3.2132809 8
1.7262019 1.7236161 3.183603 9.0500002
1.6566675 2.7515323 2.8491368 108
1.6601564 3.1197166 2.8482172 66
1.5091571 3.4339333 2.6786981 64
1.3923917 1.3143361 3.3510718 9.1750002
1.5374477 1.6182365 3.2275939 8.7142859
1.306043 1.877177 3.2071588 9.1687498
1.1816516 2.3743234 3.1858056 17.5
1.0588359 0.92378032 3.3065784 8
1.1721424 1.125489 3.3218653 13.625
1.0619137 1.6607304 3.3096206 24.222221
1.10133 1.8998349 3.1301155 9.5417652
0.84930277 2.2945747 3.0261898 15.825
0.83012509 2.5320742 2.9444926 8.8000002
0.72491014 3.3979759 2.8133867 8.5
0.43133855 1.9913363 3.0890312 10.111111
0.55808747 2.1760159 3.022908 9
0.58683097 2.6170378 2.9294527 8.5333338
0.42647648 3.0671792 2.9204535 8.1333332
0.22462487 1.4614666 3.1860201 8.166666
0.25208652 1.9370056 3.1322544 8.833333
0.18201947 2.2505603 3.1648221 8.6277781
0.21275318 2.6092224 3.0628459 8.625
19.182451 9.9798012 1.2218418 14
19.401714 10.249006 1.1070259 17
18.82696 8.3830843 1.9464993 12
18.596079 7.6085272 2.0975735 15
18.155943 9.0858965 1.4776466 17
18.305122 9.3526011 1.3317807 12
18.205557 6.103651 2.4814029 13
18.221722 6.7201767 2.2822132 13
17.815559 4.4704475 2.6181228 13
17.87672 4.6945806 2.6486368 15.166666
17.969439 5.0939617 2.5296712 16
18.077343 5.488162 2.6020999 15
17.795002 6.7593026 2.0780716 21
17.675915 3.9974895 2.855855 16
17.763824 4.2980485 2.7632449 15
12.028387 13.470129 0.57472295 7.125
11.781244 13.553725 0.5555653 4
6.7995396 13.764586 0.7088322 3
6.8418603 14.138951 0.67919892 4
6.4544191 12.800329 0.91933292 5.3333335
6.152442 11.79587 1.0841618 5
7.554841 -2.2235093 4.512578 8.833333
5.9674225 11.134624 1.2523823 6
5.9765501 11.4106 1.2309189 7
7.098845 -2.2098312 4.5440297 25.333334
7.0229945 -2.1460695 4.4725995 28
5.5800762 9.7437077 1.5166022 7
5.5884228 9.9628372 1.5033858 8
5.7383165 10.302638 1.3939736 5
5.7296939 10.617204 1.3628118 6
6.9182334 -2.3795061 4.5214477 38.672222
6.9571953 -2.1793137 4.5050364 31
5.4257231 9.2793913 1.6275108 7
5.4165535 9.441884 1.6109118 8
5.1317587 8.420042 1.8174287 9
2.8442512 2.2151358 3.6504242 9
2.6866846 1.9079038 3.7731755 9.1833334
2.5435655 2.256844 3.7220371 9.5266666
2.3965535 3.0075364 3.4981816 8.5
2.4554319 1.297086 3.9060054 8
2.2968893 1.9866145 3.7604845 16.25
2.2672105 2.1742754 3.7200012 8.9499998
1.6779739 1.5593424 3.6850626 9
1.6961409 2.1799245 3.6631925 9.208333
1.7104335 2.4150958 3.6665547 9
1.7305579 3.005826 3.4847567 13
1.4071212 1.6286945 3.6909094 9.333333
1.4493483 2.1556501 3.7052131 8.6000004
0.96869236 0.97007972 3.8992753 8.5
1.131639 1.5527239 3.6932228 9.25
0.9051125 0.98827308 3.8537669 9
0.71688128 1.2570415 3.9300661 8.5
0.12965822 2.4498029 3.3733876 8
0.23145378 2.8234377 3.3514171 8
19.300432 9.6765919 1.9215856 15.75
19.299757 9.9907589 1.6734779 16
18.984116 8.6159172 2.2293549 16
19.055872 8.8932133 2.0341926 14.666667
19.140032 9.2634354 1.9750695 15.75
18.734358 7.7288828 2.4565859 13.5
18.838545 8.0515766 2.2289743 14
18.894169 8.3731518 2.1871419 13.5
18.454433 6.7685866 2.5503945 14.166666
18.606102 7.243093 2.4160457 16.333334
18.64373 7.5214195 2.3930676 13.25
18.135773 5.6558337 2.8595297 13.666667
18.232279 6.0249896 2.7342279 14.166667
18.337709 6.3593822 2.6479511 13.5
17.825682 4.5270648 3.0071352 18
17.91741 4.9081306 3.0785446 14
18.022808 5.2987704 2.9497039 15
18.075911 5.4714289 3.0049458 11
17.561832 3.702816 3.2628512 15
17.605114 3.8287969 3.1564639 15
17.78146 4.3966241 3.1145675 16.5
15.975964 -1.5473691 4.4613109 42
16.025599 -1.4777666 4.3988633 50
11.962603 13.623641 1.0764713 8
7.0351334 -2.471601 5.1947532 4
7.1593795 -2.2435641 5.0759206 21.15
2.4268527 3.2129328 3.5363874 8
1.4201045 2.3191636 3.9590683 10
19.447935 9.9452276 2.2439222 16
19.485712 10.175683 2.081877 16.333334
19.504995 10.39992 1.9170811 17
19.068052 8.9618969 2.387454 10
19.155012 9.2000751 2.235101 15
18.863295 8.2283373 2.4965587 11
18.895163 8.3369141 2.4203498 13
18.857784 -2.70013 5.3791704 63.333332
17.998787 5.2435746 3.1850145 14
12.057955 13.609941 1.2845085 8
11.557968 13.329039 1.7173879 12
7.103651 -2.2505245 5.3717256 23.738886
1.7983267 4.3376255 4.078826 7.7142859
1.99068 4.723978 3.9218895 7
1.5561467 3.3696847 4.2770696 7.6500001
1.7094336 3.8132982 4.1271081 8.090909
1.7674085 4.3365231 4.0843801 7
1.2924597 2.4312832 4.4682775 8
1.2249682 2.4808373 4.4862037 8
1.2706666 3.4631717 4.2583265 8.139535
1.1031218 4.0106111 4.0971494 8
1.2037845 4.4436636 3.9562705 7
0.97800499 2.306788 4.3362164 7.0454545
0.98530471 2.53508 4.4749622 8
0.95565683 3.549891 4.2330217 8.125
0.75355637 2.6031621 4.4613628 8
19.563316 10.492974 2.2860866 9.5
19.546793 10.323322 2.4088457 15
18.82461 -2.781189 5.6673779 70.166664
18.921011 -2.2950158 5.6311822 41.5
18.708595 -2.0475492 5.5781555 57
17.838451 4.7593961 3.9156775 14
17.900948 4.9773006 3.7357011 13.75
17.996973 5.3574824 3.849714 16
18.593649 -3.3811765 6.007359 41.5
18.708204 -3.110239 5.7580171 63.25
18.583366 -1.9252197 5.4464626 44
18.553186 -1.6879793 5.5770478 34.5
17.685112 4.2804384 3.9700012 15.5
17.771379 4.5408173 3.925823 13.833333
11.984903 13.614987 1.8682346 7
11.772411 13.474891 1.7921085 8
7.0997477 -2.3232775 5.8966842 8
7.1123052 -2.1966424 5.7387023 19.699999
17.929539 5.1075559 4.0547643 15
18.022982 5.5745659 4.0552325 16
18.592247 -3.8465552 6.4476762 38.333332
18.620642 -3.458066 6.2979312 29.25
18.697598 -3.0732012 6.1510005 38.666668
18.752716 -2.7742505 6.0774302 34.5
18.512808 -1.8215147 5.7025518 36
17.65888 4.2817574 4.2991023 15.5
11.986141 13.889496 2.2283459 7.6666665
7.0980158 -2.3997297 6.1008763 24
7.1330991 -2.1034288 6.0801239 27.266668
6.996624 -2.7840834 6.2820587 14.25
7.0101385 -2.4954071 6.1976008 19
19.737894 10.417748 3.3220084 13.5
18.764362 -3.7306533 6.7876987 23
18.671593 -3.4925985 6.5513539 29.5
15.96241 -4.443676 6.8516626 25.5
15.668491 -4.4417639 7.0244298 41.166664
12.086149 13.831501 2.4637151 7
7.1169047 -2.1855664 6.5288424 17.5
7.1501884 -1.992371 6.5543637 26.200001
6.9680352 -2.7588615 6.7481036 21.5
20.230375 10.283017 3.7043509 10.5
19.677734 10.354925 3.7616606 15
19.628307 10.488089 3.6289124 12.5
15.931356 -4.1938128 7.3820491 6
15.547819 -4.3719468 7.3293738 33.625
15.382854 -4.5406909 7.289917 9
7.0749912 -2.0241685 6.9605584 26
7.1441569 -1.9030169 6.9281154 29.375
7.013742 -2.6135764 7.0620203 24
7.0574541 -2.0493088 6.9760947 15
19.765377 10.548327 4.1181073 12.333333
15.580179 -4.22298 7.7171564 39.75
7.1790376 -2.4352603 7.5714898 5
7.1707125 -1.8111364 7.3572516 25.625
7.0372701 -2.4245977 7.5031753 21.777777
7.0627699 -1.9481164 7.3811731 31
20.349474 10.465167 4.54142 8
20.019072 10.543358 4.5116024 9.5
19.719233 10.629434 4.4882665 12.5
15.581617 -4.2033319 8.1552668 29.25
12.08753 14.155488 3.6620581 36.25
12.068611 14.524179 3.7149382 25.333332
10.740059 14.779408 3.8196542 6.3333335
7.1355863 -2.2670178 7.8842921 15
7.1393228 -2.1607156 8.0258532 8
7.1462059 -1.7628082 7.7063103 28.388887
7.0117621 -2.3714809 7.8375039 25.333334
19.817421 10.66434 4.9690728 12
19.689926 10.755439 4.813271 14.5
15.507204 -4.1144147 8.4852848 32
12.094305 14.306589 4.1493645 37.75
12.093235 14.676766 4.1941867 16.5
10.073099 14.826983 3.9421844 5.3333335
9.3493004 15.117612 4.0181856 6.5
7.1084776 -1.8627297 8.1649857 21
7.1563296 -1.6987938 8.0775776 33
7.0508785 -2.1977224 8.2055216 30.916668
7.1224504 -2.1063666 8.2435255 25
19.865549 10.764741 5.4286447 17
19.718267 10.792637 5.3046641 13
15.506701 -4.2225609 9.0130777 8
15.541258 -3.9770532 8.9310465 34.416664
12.413506 14.354297 4.5500546 7
12.161425 14.335759 4.5289731 28.666666
12.085619 14.701457 4.5315146 17
7.1533136 -1.8900286 8.5618477 22.277779
7.2130156 -1.5559219 8.5224857 24.25
7.0440965 -2.071609 8.6549473 16.25
7.0943651 -1.9697245 8.5028725 36.5
19.982014 10.720129 5.5451345 14
15.520494 -3.9203773 9.2966413 30.75
12.457125 14.453117 4.9145579 6
12.173357 14.39591 4.8757353 28
7.1432428 -1.6944228 8.9163761 30
7.1965485 -1.4795927 8.9178905 28
7.0807624 -1.8634914 9.0090227 27.5
15.923164 -2.6723356 9.50037 8.5
15.53775 -3.8595872 9.7154913 27.416668
15.316031 -3.3552232 9.7334442 24
12.262911 14.302063 5.3387232 14.25
12.084743 14.530061 5.2842574 30.25
7.128685 -1.605533 9.3026876 35
7.2586999 -1.3702351 9.1038809 7
7.0854516 -1.7701124 9.4104567 7
19.695524 10.975224 6.6038842 16
19.5905 11.071324 6.444798 11
16.113749 -1.4675242 9.5731964 6.5
15.579739 -3.7524486 10.268831 7
15.473402 -3.0944619 9.8587637 8
15.410326 -3.5865798 10.028693 17
15.385553 -3.4784865 9.8959646 29
15.157763 -3.1742778 9.8587284 26.5
15.09062 -2.6027322 9.8919992 36.75
15.251648 -2.3720493 9.8983612 28
14.840063 -3.0467601 9.8631897 36.5
14.741217 -2.5286751 9.9093609 37
14.62887 -2.2212257 9.9279556 39
14.372213 -2.9546638 9.8565331 42.5
14.356522 -2.6245179 9.8924255 42
14.249039 -2.3207164 9.9090958 38.666668
14.166779 -2.0534253 9.9189224 38
12.223545 14.421315 5.8193765 27
12.043871 14.538849 5.6174893 28.333334
14.077353 -2.9820323 9.7947397 19
13.913549 -2.7353668 9.8756924 40
13.819286 -2.297864 9.904705 41.75
14.010492 -2.0905828 9.9037495 38
13.489553 -2.3984776 9.9075356 40.333336
13.388807 -1.9213308 9.8958578 39.5
13.170399 -2.4755883 9.8850145 28.166666
13.023298 -2.0467725 9.9072895 39.75
12.614086 -2.1891265 9.9260244 40
12.096687 -2.0780001 9.9678011 25
8.5198803 -1.8157524 9.8477707 4.6666665
8.1401253 -1.7087096 9.866622 4
7.2311378 -1.376181 9.7148638 29
7.3581119 -1.3566846 9.5387907 5
7.1119413 -1.5703207 9.8270378 19
5.9795465 -1.1025726 9.8472319 4
5.7001114 -0.94359148 9.7217751 3
5.2476335 -0.89989793 9.7782526 3.25
16.552732 -0.364097 9.7898998 6.5
15.317446 -2.0226021 9.9440527 20
15.297741 -1.7640754 10.011656 29
15.295446 -1.3487591 9.9841394 32
15.299065 -1.0350186 10.042866 22
15.013027 -2.1143088 9.9411325 34.333332
15.050133 -1.8304232 9.9938679 33.5
14.966793 -1.3080589 10.011606 33.75
15.151302 -1.0880789 10.041672 32
14.644369 -1.9355451 9.9617538 35.666668
14.598747 -1.4086097 9.975091 35.666664
14.552357 -0.94218767 10.011334 36
14.230022 -1.8521746 9.9233541 40
14.245291 -1.5062128 9.9419746 37
14.156883 -1.0564083 9.9665565 38.5
14.067308 -0.78877079 9.9937172 37.5
12.190027 14.412627 6.1827993 23.333334
12.069191 14.631448 5.9988003 26.333334
13.85408 -1.7743338 9.9024134 39.666668
13.772692 -1.4961957 9.9334049 39.666668
13.714117 -1.0477942 9.9465618 37.833336
13.762552 -0.70835531 9.9627209 38.5
11.958382 14.5999 6.3045354 22
13.583595 -1.8588701 9.8968134 38
13.374939 -1.6254374 9.9235888 39
13.349182 -1.1713086 9.9313402 39.833332
13.271322 -0.69797909 9.9213123 39.333332
13.195616 -0.44810927 9.9438963 38.666668
12.983328 -1.6041299 9.9249773 39.541664
12.935709 -1.173915 9.9353867 42
12.797903 -0.73340476 9.9127893 40
12.803482 -0.44929397 9.9285774 39
12.594757 -1.8978833 9.9403172 46.5
12.660072 -1.7197038 9.9321404 39.5
12.579306 -1.302195 9.9332819 41
12.495796 -0.85925734 9.9254313 39.166664
12.445227 -0.45024145 9.9303303 41
12.313185 -1.9981228 9.9528809 39
12.105778 -1.6311311 9.9579182 42.125
12.187607 -1.2872015 9.9403191 41.666664
12.108425 -0.87992084 9.9413681 39.75
12.019056 -0.48241985 9.9362011 39
11.787054 -1.7499644 9.9744234 38.583336
11.755373 -1.2883066 9.9455872 40.25
11.673803 -0.91416609 9.9521046 42.583336
11.734303 -0.60205638 9.9410362 39
11.494434 -0.30287039 9.9520998 40
11.443577 -1.7586533 10.022883 36.333332
11.308701 -1.3416947 9.9848509 41.916664
11.377726 -1.0379909 9.968955 40.875
11.247549 -0.54551947 9.9703541 41.625
10.896107 -1.6469125 10.033057 33.5
11.007734 -1.4712027 10.020342 45
10.880835 -0.97460139 10.002991 45
10.941261 -0.67828643 9.9851122 43.25
10.767963 -0.3568598 9.9806881 39.5
10.530199 -1.4009081 10.055443 39.5
10.591976 -1.101591 10.033877 46.25
10.48077 -0.6263746 10.019127 41.150002
10.096176 -1.4189509 10.047771 20.333334
10.11524 -1.0460731 10.071388 42.125
10.163366 -0.77075279 10.052618 44
9.7599888 -1.1987098 10.112814 34.133331
9.6295033 -0.74708211 10.087615 40.349998
9.3430376 -1.1262459 10.143152 37
9.3947239 -0.85387719 10.120863 39.75
8.9809217 -1.1347824 10.144098 24
8.5530815 -1.7863408 10.023264 4
8.5220127 -1.082281 10.18334 10
8.5964565 -1.0510041 10.172523 21
8.3030987 -1.7260591 9.9902048 4
8.1095972 -1.0178298 10.198709 8
7.6752758 -1.2579604 9.9696398 3.6666667
7.7824736 -1.0351835 10.003291 4.6666665
7.3129077 -1.3035918 10.042268 19
7.3013268 -1.1130041 10.078903 28.166668
7.0545335 -1.3680226 10.013949 26
6.1831017 -1.1082212 10.002169 4
5.7025738 -1.0067781 9.8924341 3
5.77876 -0.29736531 10.064039 10
5.4577436 -0.20295727 10.035181 11
19.046486 10.547601 7.4464135 11
19.195183 10.914305 7.2673526 16.5
18.958851 10.266717 7.6100364 9
18.562195 10.616275 7.4865851 15
18.680429 10.916075 7.3431716 15
18.460634 10.28686 7.6753511 13
18.518463 10.454505 7.5840707 15
18.214235 10.878813 7.4574556 15
18.323669 11.17454 7.3169727 14.5
18.107618 10.59068 7.598393 14.5
17.783979 11.17764 7.3506579 14.333333
17.54583 10.589045 7.6043477 15
17.644381 10.8234 7.5048547 16
17.373716 11.23817 7.4130921 13
17.458838 11.473037 7.3118 12.5
17.252043 10.941018 7.5318894 13
17.278482 11.045299 7.4741049 14
17.042868 11.516536 7.3728848 11.666667
15.291237 -0.72027862 10.089687 23.5
15.247757 -0.44974244 10.165719 29.5
15.239286 -0.082293868 10.186625 31
14.976639 -0.8252002 10.069152 32.5
14.899914 -0.55240309 10.116676 31.5
14.819258 -0.054262042 10.130054 34.5
14.469786 -0.67248356 10.049201 35.333332
14.434519 -0.17100394 10.065732 34.833336
14.390812 0.26918304 10.109104 35.333332
13.967398 -0.46266472 9.982686 37
14.07663 -0.28470314 10.014137 36.833336
13.901817 0.25411737 10.052902 37.25
14.023037 0.4560107 10.082842 36
12.20542 14.565109 6.5621238 27.833334
13.604706 -0.30550349 9.9827757 38
13.613939 0.14959204 10.017529 37.666664
13.568598 0.56589139 10.053894 36.666668
13.461124 0.82391155 10.062649 35
13.164524 -0.1684655 9.9614248 37
13.309906 0.034511209 9.9875612 36.166664
13.110329 0.53398979 10.007743 36.333336
13.136616 0.84120166 10.026345 35
12.922474 -0.26599634 9.9531021 38.5
12.74605 0.097074628 9.9672184 38.75
12.774229 0.39141953 9.9825172 36.666664
12.651579 0.90889394 10.003706 35.25
12.740402 1.0939726 10.007959 36
12.399792 -0.046783328 9.9530029 38.875
12.263769 0.45156133 9.9733486 37
12.341362 0.76546443 9.9851236 35.166664
12.27985 1.1855944 9.9764633 35.666668
12.194914 -0.26930606 9.9477186 39
11.918516 0.017193437 9.9565229 38
11.99192 0.33135426 9.9619198 36.833336
11.83996 0.81705534 9.9601068 35.625
11.864885 1.1189936 9.9575853 35.666668
11.639624 -0.10698259 9.9592037 38.208336
11.486649 0.36663783 9.9616194 37.25
11.53496 0.67305219 9.9488258 37.041664
11.43178 1.1584913 9.9711285 36.916664
11.172775 -0.16825998 9.9522448 37
11.164604 0.22275436 9.9533939 38
11.045263 0.71083462 9.9424438 38.125
11.138504 1.0150896 9.9540071 37.75
10.907455 1.2890414 9.9561129 38
10.832838 -0.20002973 9.9832649 40.599998
10.682413 0.25966227 9.9623022 39.625
10.756514 0.56618249 9.9498816 38.416664
10.67045 1.0294069 9.9653788 37.924999
10.64485 1.4183344 9.9569902 38.25
10.333855 -0.1755265 10.006424 40.125
10.400522 0.12533438 9.9741812 38.833336
10.295477 0.5827924 9.9765139 39.166664
10.277088 0.95187485 9.9749985 38.733334
10.221855 1.3073155 9.9651041 38.875
10.016172 -0.31954396 10.026203 41.075001
9.9418907 0.16418254 9.9944725 39.766666
9.9305725 0.52020204 9.9975052 39.633335
9.9208164 0.8926388 9.9867516 38.700001
9.7760963 1.3017584 9.9915409 38.200001
9.7404041 -0.568102 10.063342 40.5
9.5538273 -0.27940643 10.05038 40.900002
9.6283331 0.011063457 10.024048 40.299999
9.5280685 0.43942559 10.025961 40.400002
9.4705315 0.903319 9.9997082 39.400002
9.3623362 1.3150171 10.007961 40.599998
9.1939201 -0.69610989 10.119105 39.666664
9.2459793 -0.42220604 10.086271 40.375
9.204669 0.041600347 10.066516 40.400002
9.095397 0.46763313 10.049078 39.033333
9.0946598 0.82179463 10.028563 38.144444
9.1134138 1.178317 10.025192 38.833336
8.908144 -0.82690156 10.166807 40.800003
8.8022728 -0.37763393 10.120115 40.099998
8.8377171 -0.015448213 10.098055 41.777775
8.7357998 0.40519464 10.075078 40.222225
8.6539574 0.81908119 10.06601 39.016666
8.6367683 1.1582474 10.049881 41.033333
8.5179272 -0.86697161 10.195498 37.566666
8.3942604 -0.44379866 10.159487 40.666668
8.4135265 -0.093737721 10.134702 39.450001
8.3583851 0.33851182 10.109935 40.366669
8.2904768 0.75034392 10.093123 40.75
8.1954899 1.1565586 10.071898 44
8.1692314 -0.89070022 10.220958 31.15
8.0451069 -0.48155487 10.195568 40
7.9714742 -0.063159108 10.168112 40.799999
7.9910975 0.27847087 10.136534 40.188889
7.9272518 0.68931353 10.107931 42.5
7.8502564 1.0908805 10.085412 44.733334
7.7084174 -0.8447119 10.261515 39.291664
7.6588507 -0.5326525 10.233537 39.277782
7.5844803 -0.11652482 10.185038 39.222225
7.5036297 0.28060067 10.149293 39.316666
7.5226827 0.61526978 10.117021 43.083336
7.3990765 1.0897583 10.068192 44.555553
7.313448 1.3616923 10.039869 41.5
7.2043281 -1.2043589 10.471163 30
7.3564844 -0.99635613 10.34196 20.166668
7.2513614 -0.5814544 10.262516 37.800003
7.209959 -0.1519872 10.189157 37.916664
7.1452889 0.24606574 10.138067 39.5
7.1150022 0.65659845 10.100806 45.133331
7.047493 1.0350794 10.054645 41.416664
6.9871054 1.4141155 10.019965 44.375
6.9971189 -1.2829348 10.508627 13
6.9076962 -0.58178866 10.229225 32
6.8132377 -0.29276001 10.188048 36.266666
6.7435012 0.09621799 10.132393 38.833332
6.6671171 0.58139002 10.070395 42.666668
6.6281524 0.95978153 10.028599 41.91111
6.6255403 1.3486677 10.002015 41.797619
6.5451965 1.705202 9.9682436 42.133335
6.5279317 -0.48426235 10.190935 36
6.4760609 -0.29985535 10.162203 40.066666
6.3345194 0.15918958 10.092537 40.549999
6.3900542 0.47868955 10.057251 44.555557
6.2618642 0.91217148 9.9977627 41.25
6.1521239 1.3361298 9.9684334 41.944443
6.1376729 1.7128953 9.9349966 40.214283
6.197917 1.9243674 9.9314556 41.5
6.0821853 -0.32206213 10.133598 26.25
5.9510827 0.032576442 10.081024 42.809525
5.9207954 0.41081297 10.029826 44.571426
5.8449955 0.84691298 9.9800158 42.174603
5.9197559 1.2431327 9.9537659 37.805557
5.5518303 0.0052307844 10.05762 38.722218
5.5886426 0.39161551 10.007598 41.138889
5.6349764 0.77287877 9.9909897 32
18.311625 9.8524027 7.9205227 15
18.38002 10.065055 7.7952256 15.333333
18.085415 9.1394043 8.3660755 10
18.189636 9.4016228 8.2182102 14.25
18.062475 9.7912626 7.9965224 14
17.905985 10.082448 7.845902 14.333333
18.011282 10.358603 7.7056308 14.5
17.685419 9.3745909 8.2740774 12.333333
17.78289 9.6749516 8.0918112 15.333333
17.468695 10.371576 7.7133946 13.666667
17.355215 10.05284 7.8777003 14.666667
17.057161 10.437591 7.7550607 13
17.15144 10.706736 7.6245303 13
15.198122 12.161168 7.4117618 37.5
14.989979 10.367012 8.0416803 39
15.072189 10.609468 7.9382277 40.25
15.167494 10.865425 7.8423815 39
14.940994 11.348811 7.6961713 39.666668
15.069014 11.727241 7.5679555 38.75
14.977274 12.109118 7.463306 37
14.849363 12.471766 7.3465257 35.666668
14.846617 9.9477816 8.2312908 40.5
14.77062 10.270492 8.1057205 42.5
14.682716 10.591281 7.9797173 39
14.825916 10.992829 7.8316646 38
14.535048 11.403433 7.7112842 40.333332
14.633368 11.716348 7.6039805 39
14.567127 12.047408 7.5230842 37.416664
14.521004 12.4881 7.40797 33.75
14.578255 12.751178 7.3111787 17
15.52322 0.00029122829 10.238375 31
15.539022 0.47482431 10.309255 16.5
14.549414 10.175395 8.1637163 40.333332
14.273321 10.540872 8.0552053 41.599998
14.401155 10.960987 7.8807921 39
14.313166 11.217793 7.8039927 41.5
14.279203 11.638112 7.6860271 38.75
14.200525 11.977962 7.5987835 38
14.15979 12.442669 7.4908438 37
14.053881 12.837916 7.3674464 30.166668
13.894651 13.020001 7.3158813 20
15.199528 0.3720485 10.239237 28.666668
15.142967 0.83480251 10.300717 28
14.183695 10.265918 8.1693993 40
13.980989 10.596259 8.0948782 41
13.901381 10.90812 7.9906292 39.875
13.829803 11.26982 7.8735623 41.799999
13.785608 11.753596 7.7194514 39.5
13.691935 12.056409 7.644341 37.75
13.795757 12.42738 7.5399499 37.666668
13.713903 12.752708 7.4720054 38.125
13.630219 13.17072 7.3650661 35.333332
14.815956 0.40871584 10.184586 33
14.765636 0.71403158 10.21539 31
13.547009 10.883812 8.0362978 40
13.473688 11.235761 7.9229736 40.200001
13.419624 11.62539 7.8069382 39
13.357758 11.983414 7.7200146 40.75
13.311529 12.427898 7.6258435 38.25
13.233536 12.777104 7.5661607 38.25
13.348854 13.14315 7.2865839 27
14.296762 0.6935221 10.151464 34.75
13.180838 11.314682 7.935411 39
13.221718 11.456527 7.8908067 41
13.132603 12.321754 7.6983066 38
12.878073 13.440795 7.2764297 17.5
13.935041 0.70419776 10.109147 35
13.819162 0.96657979 10.116322 33.5
12.203459 14.650937 6.9717722 45.200001
12.040199 14.737265 6.7746568 33
13.511127 0.99463236 10.08024 34.25
13.158722 0.99542177 10.046414 35.5
12.971401 1.347437 10.0522 34.5
12.877834 2.1781104 10.117447 34
12.748362 1.248603 10.019637 35
12.560583 1.7307698 10.050567 35.5
12.670727 2.070344 10.091286 34.333336
12.466393 2.4080522 10.09928 35
12.10125 1.3638779 9.994276 37
12.263729 1.5890781 10.008216 35.333336
12.133615 2.0811334 10.044745 36.375
12.16328 2.3814716 10.066536 36.75
10.499683 14.466785 7.2051611 15.5
11.995731 1.3109311 9.9874687 35
11.795494 1.6155106 10.003526 36.5
11.849455 1.9256765 10.021652 36.125
11.716825 2.4005337 10.050545 36.458336
10.16983 14.492305 7.2112002 29
10.115654 14.646183 7.1263266 10
11.476694 1.446457 9.9882812 37.375
11.376148 1.945938 9.9919376 36.25
11.262671 2.4097972 10.028311 37.125
11.283108 2.6950502 10.052512 38.25
11.050291 1.4969426 9.9710312 37.75
10.937311 1.9558736 9.9903545 37.25
10.9508 2.2346516 9.9895706 37
10.835323 2.6983433 10.025701 39.25
10.504631 1.5805348 9.9750853 38.5
10.644999 1.7953335 9.9695826 37.666664
10.529737 2.2442818 9.9945459 39.875
10.535715 2.64136 10.01276 42.833332
10.622015 2.9725718 10.005497 39
10.355078 1.4885558 9.9928827 38.5
10.18717 1.7847122 9.9782639 38.400002
10.103453 2.2450285 9.9966774 42.533333
10.104185 2.6221108 10.002249 39
10.11849 2.8823318 10.007256 40.333332
9.9104996 1.5034841 9.9828949 39.333332
9.7311592 1.769281 9.9938097 42.433334
9.7352581 2.1448159 9.9951878 42.299999
9.6633453 2.5884371 10.004703 40.600002
9.6344213 2.9433229 10.011456 39.200001
9.3723335 1.4360191 10.011127 38
9.3821526 1.6869661 10.00901 42.733334
9.3202705 2.1291628 10.008168 44.183334
9.3384418 2.5008574 10.009165 41.025002
9.2228394 2.9032617 10.027781 40.5
8.8758087 1.4069318 10.033056 41
8.9514732 1.67901 10.024973 41.916668
8.9695435 2.0363302 10.015123 40
8.9121294 2.4679794 10.022264 39.25
8.8228092 2.8732352 10.035739 40.75
8.7397785 1.3323265 10.041909 49.5
8.5986738 1.596536 10.037935 41.733334
8.5584593 2.0212932 10.031763 40.75
8.4980774 2.4335194 10.040811 41.083336
8.4428682 2.8671904 10.032539 39.916664
8.5489473 3.0665672 10.026623 39
8.2650757 1.3045536 10.059403 39.75
8.1965179 1.595971 10.043946 41.333336
8.1597157 2.0145493 10.041148 40
8.0873566 2.4085727 10.036938 40.083336
8.102869 2.7603326 10.025862 41.194443
8.0575199 3.0654678 10.017929 40.166664
7.776988 1.2705442 10.07471 40
7.8057194 1.4984807 10.052457 40.666668
7.7779036 1.9112931 10.034225 40.805557
7.7212219 2.3119955 10.018114 40.476192
7.6762567 2.7186155 10.007543 42.555557
7.6262708 3.1127319 9.9943256 41.777775
7.3993435 1.5028237 10.043919 42.733334
7.327436 1.8805299 10.019814 41.355556
7.2848291 2.2798729 9.9956484 41.138889
7.2492175 2.6716223 9.9792395 40.022221
7.2247443 3.067585 9.9728127 38.976192
7.1904259 3.3596325 9.973835 39.5
7.2423658 -1.1126093 10.782062 5
7.1202526 1.5739878 10.020749 41.5
6.9770679 1.8068496 10.001204 40.297619
6.8545856 2.2544084 9.9625607 40.047619
6.8453336 2.6400886 9.9532099 41.777779
6.8287425 3.0267148 9.9541016 40.285717
6.7586331 3.4033499 9.9521294 38.933334
7.1031437 -1.1666764 10.809106 5
6.6491776 1.8541013 9.9709244 43.625
6.5842571 2.1147175 9.9522257 42.833332
6.4291005 2.6033351 9.9300814 39.077381
6.5083284 2.9386826 9.9326172 38.791664
6.5658269 3.2797751 9.938755 37
6.2452097 2.1332147 9.9337435 39.083332
6.2593231 2.4189243 9.9279718 36
18.046659 8.9956713 8.466835 12
17.848444 8.4555626 8.8089256 9
17.899807 8.6405716 8.6735506 10.666667
17.775696 8.9568386 8.5009766 11
17.628048 9.1812763 8.3998604 14
17.410324 8.5972958 8.7546921 12.333333
17.523884 8.8884001 8.5796347 14.333333
15.003363 8.3398991 8.9909105 41.25
14.962238 8.6953564 8.8159361 44.5
14.931211 9.0972509 8.6228209 41.599998
14.873486 9.4904871 8.4272547 40
14.765059 9.7206259 8.3359194 42.666668
14.701117 8.4760332 8.9721727 41
14.595778 8.6970615 8.8638477 42
14.530369 9.0403366 8.6909266 41.799999
14.500217 9.454113 8.5015278 45.833336
14.432137 9.7863178 8.3595533 42.75
14.50605 10.006196 8.2559681 39
14.332771 8.4825497 9.0130444 39
14.214706 8.6418915 8.9440346 41.5
14.158226 8.99401 8.7633152 41.599998
14.106487 9.4106903 8.5626535 40.666664
14.015945 9.7472954 8.4078293 40.599998
13.987848 10.140787 8.2531672 40
13.925116 10.416651 8.1692524 41
13.664278 8.7141018 8.947197 43
13.764553 8.9852829 8.803627 41.25
13.730814 9.3361025 8.6448727 41.575001
13.702467 9.7300224 8.4712543 40.25
13.6329 10.043831 8.3451576 40.333336
13.592012 10.453153 8.1929703 41.599998
13.519299 10.775657 8.0825024 40.5
13.306738 9.035594 8.8428984 42.599998
13.240494 9.3185673 8.7217884 42.400002
13.214882 9.7523127 8.5262384 40
13.289772 9.9932117 8.415905 44
13.124723 10.49862 8.242075 44.299999
13.193441 10.751245 8.137373 42.625
13.010057 11.214496 8.0170221 39.666664
12.956404 11.601821 7.9188814 39.5
13.049051 11.978158 7.799531 40.75
12.958719 12.27903 7.7387223 40.625
12.875093 12.713377 7.6270347 39.75
12.808477 13.181403 7.5428147 37.125
12.689535 13.483714 7.493618 36.75
12.727028 13.785407 7.4056726 17
12.50423 14.688234 7.2802052 24.5
13.628109 3.0224547 10.316259 33
12.977644 9.0144844 8.8988914 39.75
12.90416 9.2705956 8.7893534 40.599998
12.865114 9.6365623 8.6182508 41.125
12.831223 10.017306 8.4639244 42
12.790735 10.375422 8.3491859 39.5
12.753216 10.779178 8.2231274 42
12.68775 11.13699 8.1118517 39.416664
12.628387 11.546763 7.9942899 39
12.568838 11.969994 7.8910117 38.875
12.48049 12.306314 7.8217506 39.75
12.551086 12.683303 7.7101789 39
12.436628 13.093954 7.6065164 39.416664
12.309759 13.466301 7.5250945 38.25
12.352158 13.859639 7.4142213 37.75
12.137939 14.347763 7.3963017 23
12.121674 14.656878 7.2771554 36.400002
13.198696 2.6477408 10.198785 33
13.306097 2.993315 10.275241 33.5
12.476225 9.328167 8.8246174 40.900002
12.539875 9.5423622 8.71418 41.400002
12.39727 10.034313 8.557169 42.299999
12.475235 10.305277 8.444458 40.799999
12.301701 10.798655 8.3022108 42.400002
12.238258 11.137274 8.2169724 40
12.328213 11.552501 8.0668669 38.400002
12.208502 11.841581 7.9728885 39.625
12.112452 12.272101 7.8479581 41
12.045914 12.710029 7.7483387 39.625
12.09112 13.013109 7.6638684 38.549999
12.014122 13.495937 7.5690756 38
12.058779 13.891313 7.4688725 37.25
11.919205 14.191309 7.4217267 32.333336
11.819008 14.600491 7.3977218 19.333334
12.980204 2.3629708 10.171061 33
12.994967 2.5451822 10.154926 35.166664
12.837053 3.032563 10.221976 33.75
12.878305 3.3529787 10.268449 32.5
12.127686 9.6415586 8.7527351 40
12.07865 9.9567347 8.6493931 41.75
12.043711 10.350821 8.5203009 40.599998
11.954342 10.664044 8.3994265 40
11.886887 11.100718 8.2434511 41
11.836496 11.502142 8.1281252 41.400002
11.772512 11.871128 8.035738 39.25
11.688488 12.313203 7.9161024 40
11.729691 12.595506 7.8317695 40.25
11.623468 13.0287 7.7277198 37.25
11.664133 13.396186 7.6296453 37.5
11.53076 13.820067 7.522789 35.708336
11.535362 14.109651 7.4341235 33.400002
12.542902 2.584053 10.130432 33.5
12.566441 2.879523 10.174228 34.333336
12.375437 3.3641446 10.196887 36
12.335558 3.6494322 10.209504 37.5
11.620342 10.014207 8.6696625 40
11.576666 10.333779 8.5646534 39.875
11.538389 10.696858 8.454607 41
11.484375 11.127133 8.3143806 40.375
11.402948 11.485417 8.2080631 39.599998
11.326572 11.899034 8.0840454 39.25
11.370838 12.185592 7.9963517 38.25
11.272018 12.571995 7.8952575 38.400002
11.311527 12.991502 7.7684398 38
11.33679 13.376092 7.6521258 37.5
11.35257 13.641819 7.5770149 37
10.913101 14.179319 7.414464 32.333332
10.889856 14.419087 7.3276563 35.333332
12.220018 2.5400374 10.104059 35.5
12.093416 2.8964305 10.1293 34.5
12.016161 3.304101 10.139946 38.333332
12.016088 3.587275 10.180313 37.333332
11.291258 10.282589 8.6336832 39.5
11.112301 10.686662 8.5211287 40.224998
11.170044 10.986912 8.4024353 40.083336
11.114626 11.458344 8.247695 39.599998
10.987749 11.825585 8.1376572 39.833336
10.846994 12.159007 8.0483494 39.200001
10.882807 12.547246 7.9246154 37.599998
10.773813 13.020489 7.768518 37.099998
10.777723 13.335784 7.6647182 37.799999
10.774733 13.697672 7.549345 36.875
10.767385 14.007489 7.4555144 34.950001
10.57091 14.340844 7.3119369 33
11.848417 2.6160715 10.080132 37
11.612585 2.8985591 10.083553 36.625
11.686789 3.2358494 10.113268 38.458336
11.574659 3.7175498 10.162741 36.625
11.484428 3.9605103 10.142907 35.5
10.590012 11.069713 8.4397287 38.900002
10.634581 11.379685 8.3221836 39.166668
10.674946 11.729272 8.1910429 40.400002
10.592745 12.115566 8.0621796 39.200001
10.472584 12.525554 7.9251761 37.958336
10.480209 12.894607 7.7989135 37.916664
10.308437 13.279901 7.6528721 38
10.285749 13.6503 7.5243235 36.200001
10.256941 14.034524 7.4000821 36.599998
10.220512 14.338098 7.2961774 34.666668
11.327955 2.8733284 10.055819 39
11.22299 3.2154591 10.080852 37.75
11.273188 3.5231557 10.103458 37.849998
11.103241 3.970623 10.128356 36.75
10.32662 10.99156 8.4739485 39.966667
10.231041 11.337652 8.3363619 39.833332
10.271442 11.741975 8.1876183 39
10.143358 12.109589 8.0679684 39.183334
10.152145 12.401735 7.9641948 40
9.992651 12.852174 7.8190742 37.666668
9.9714184 13.233613 7.6812429 38.200001
9.9388752 13.583289 7.5542426 37
9.9002581 13.9455 7.43187 36.200001
9.8598375 14.282241 7.3253264 33.25
10.917763 2.8835287 10.040996 41
10.887011 3.130518 10.049294 38.916668
10.844477 3.5115247 10.06786 37.450001
10.710552 3.9640098 10.096898 37.458336
9.9113541 11.062535 8.4758215 41.5
9.9363937 11.312266 8.3759747 40.666668
9.7968102 11.710728 8.2206707 43.333336
9.6266384 12.029822 8.0871439 45.857143
9.6191139 12.407195 7.9399076 42
9.6014175 12.76222 7.8068528 40.5
9.5774984 13.169692 7.6704741 41.166668
9.5687275 13.42817 7.6018949 37
10.485455 2.9944072 10.034025 39.400002
10.404408 3.4796686 10.039436 38.125
10.3106 3.9389215 10.078748 37.299999
10.326939 4.2369142 10.098326 36.666664
9.5778294 11.024506 8.4869823 41
9.4742107 11.259182 8.4005108 45.488094
9.491106 11.585858 8.2694635 43.916664
9.3663654 11.992679 8.1133585 41.166668
9.3608303 12.366855 7.9775729 36.333332
9.3545933 12.626517 7.8915963 28.5
10.083023 3.1310019 10.009037 39
9.9750233 3.4317822 10.031799 37.775002
9.9612522 3.8224406 10.048186 37.266666
9.8383207 4.263917 10.072106 38
9.0843391 11.241776 8.436245 36.833332
9.0992785 11.502625 8.3395138 30
9.7203321 3.1221309 10.021772 39.666668
9.5927391 3.4095359 10.038384 38.5
9.5929737 3.8037515 10.049649 38.033333
9.4917488 4.2462368 10.060288 39.688892
9.4478321 4.4737053 10.077549 37.5
9.3306904 3.1001534 10.029306 39
9.2527857 3.2989559 10.032109 39.888889
9.1839972 3.7508316 10.046082 39.722225
9.1111288 4.1916556 10.061056 38.916668
9.0131674 4.4891 10.07538 36.166664
8.9274387 3.0623202 10.035905 38.5
8.8592501 3.2661428 10.032169 37.833332
8.7868891 3.6947436 10.039875 38.888889
8.713274 4.1227303 10.051144 39
8.6050911 4.5409584 10.05823 37.583332
8.4625158 3.2279043 10.030998 39.222225
8.3861332 3.636333 10.02651 38.956348
8.3220453 4.0589991 10.033496 38.047619
8.3204527 4.4335794 10.042826 37.982143
8.1159344 4.6558137 10.049633 38
8.0267277 3.2709053 10.01482 40.541664
7.9876318 3.577486 10.013629 39.166668
7.9203954 3.9912653 10.020023 39.055557
7.8735123 4.4434814 10.027957 36.988094
7.7877131 4.7350626 10.036505 36.5
7.6047826 3.3096771 9.9927301 39
7.6078854 3.5327587 9.9980354 39.464283
7.5414696 3.9459229 10.003252 39.452381
7.4874911 4.3711491 10.008246 37.125
7.450069 4.6896753 10.025774 37.625
7.2494631 3.5086255 9.9799633 41.166668
7.1483941 3.8843813 9.9847946 40.023808
7.1152096 4.3027949 9.9909344 36.402782
7.1841736 4.5835943 10.009455 36.666668
6.8139019 3.5482612 9.9568729 40.25
6.8416538 3.7796164 9.9586458 39.099998
6.8574858 4.1132364 9.9584141 31
15.083038 7.3680239 9.6406698 40
15.154999 7.5263419 9.54035 42.5
14.91918 8.1031733 9.1447678 41
14.622757 7.3719583 9.6215315 39
14.71702 7.5985088 9.4699345 42.400002
14.696299 7.9792423 9.2576513 39.5
14.628864 8.2793388 9.0933037 41.666668
14.407099 7.2964778 9.6957932 41.5
14.356398 7.5935197 9.5292158 42.200001
14.313007 7.9412928 9.3267937 40.916664
14.262224 8.2909479 9.1300688 40.75
14.309465 3.6710629 10.550422 30
13.958778 7.5467682 9.5929604 40.333332
13.921267 7.8850751 9.3960342 40.583336
13.896955 8.2663555 9.1882048 42.833332
13.999435 8.5311556 9.0342493 45
14.006596 3.2169814 10.406987 31.5
13.989904 3.6650586 10.488569 30.5
13.594795 7.5391922 9.6315784 39.25
13.524155 7.8339925 9.45928 41.416664
13.472712 8.1995049 9.2471027 41.400002
13.452013 8.5508404 9.0654039 41.599998
13.696276 3.1997609 10.36336 32
13.728233 3.5206881 10.424166 31.25
13.563162 3.8989415 10.453893 32
13.497168 4.2059488 10.467724 34
13.209164 7.5665278 9.6319799 39.666668
13.150866 7.7871861 9.5183792 38.849998
13.020958 8.2430105 9.2908936 43.799999
13.103291 8.4689369 9.1548576 41
12.93465 8.8879337 8.9676075 44.5
13.396557 3.1849451 10.321171 33
13.208441 3.5412443 10.344636 32.833332
13.251728 3.8871365 10.390738 32.5
13.129517 4.2995067 10.413085 33.5
12.909571 7.595314 9.6522655 39.5
12.658201 7.786561 9.5630159 42.5
12.663599 8.1698236 9.3641033 42.791664
12.636665 8.5176878 9.1837902 41.333332
12.602737 8.8354359 9.0257473 40.166664
12.33276 9.3215685 8.865571 42
12.954697 3.5432277 10.31055 33.5
12.739799 3.9059253 10.288397 36.166664
12.816614 4.2610674 10.349413 34.166664
12.644138 4.5981793 10.374297 35
12.349979 7.8135209 9.5830832 42.599998
12.314966 8.0869684 9.4353189 41.916664
12.196114 8.5303211 9.2344093 40.066666
12.179453 8.8698606 9.0934706 41.333332
12.140223 9.2001371 8.9439583 42.566666
11.97134 9.5965738 8.8116541 43.5
11.903196 9.8377142 8.7406654 40
12.506582 3.7577834 10.243129 36
12.296446 4.2180805 10.269528 35.375
12.36842 4.5772004 10.318602 33.625
12.111139 4.8472829 10.333914 33
11.90769 7.8324113 9.6184072 41
11.86928 8.0780144 9.5123777 43
11.859653 8.4273434 9.3378496 42.766666
11.739822 8.8843985 9.1581249 42.583336
11.701389 9.183692 9.0471878 41.666668
11.667379 9.5961151 8.854187 40.733334
11.566767 9.8081703 8.764802 43.5
11.993296 3.8659863 10.205698 36.666668
11.988237 4.1426592 10.242064 36
11.910908 4.5549903 10.26833 34.166664
11.803308 4.9297829 10.298787 33.5
11.44121 8.1317101 9.5396862 42.349998
11.530817 8.3484707 9.4239702 40.333336
11.391689 8.7696934 9.2476578 42.625
11.251598 9.2066822 9.0576181 40.333336
11.336908 9.4701557 8.9381933 40.666664
11.204529 9.9407291 8.7772694 41.333336
11.13516 10.210752 8.6896381 41.75
11.669643 4.0830755 10.18749 36.25
11.48164 4.5351529 10.215452 34.5
11.521921 4.8617339 10.263672 36.083336
11.303631 5.1788759 10.26438 35.5
10.975737 8.141964 9.5589628 42
10.971348 8.4412737 9.4258108 43.416664
11.067842 8.6861086 9.3066807 41.75
10.951488 9.110013 9.144474 41.5
10.82745 9.5746241 8.972662 40.357143
10.90798 9.8512659 8.8566456 42.416664
10.7314 10.33163 8.7024822 40.900002
10.781357 10.564675 8.6081915 39.916664
11.177708 4.163991 10.149818 36
11.146666 4.4277329 10.174524 35.833332
11.099258 4.8457932 10.21241 36.25
10.90028 5.2749023 10.237702 35.333336
10.673248 8.3687716 9.4987917 40.474998
10.555367 8.7607031 9.3397064 40.875
10.652069 9.0297794 9.2154169 39.642857
10.503319 9.4815207 9.0496702 39.974998
10.353195 9.9158144 8.8980865 40.25
10.422575 10.199518 8.7821102 41
10.27153 10.652441 8.6090727 44
10.300224 10.814061 8.5449829 39.25
10.712036 4.3894238 10.13929 36.966667
10.653353 4.7849989 10.163633 36.625
10.622238 5.1902852 10.194386 37.166668
10.56917 5.4431963 10.217965 37.5
10.303741 8.4430933 9.5117044 40.5
10.223974 8.6575212 9.4271431 42.166664
10.109537 9.0831766 9.2617855 40.966667
10.099691 9.4406414 9.1041203 41.261906
10.081432 9.7867422 8.9597349 40.366669
9.9179688 10.236904 8.7916355 40.142857
9.9765053 10.540958 8.6684322 41.442856
9.8884964 10.878198 8.5504704 42.75
10.385235 4.4400697 10.107014 38
10.248405 4.729126 10.127724 37
10.231926 5.1368756 10.166623 37.833332
10.148172 5.4916306 10.197653 36.25
9.750617 8.7261486 9.4353848 43.266666
9.8321676 8.9563704 9.3273544 43.857143
9.7109375 9.4003191 9.1468601 43.666664
9.6778698 9.7836275 8.9988298 41.142857
9.6059799 10.157286 8.8421316 44.5
9.5143909 10.528943 8.6900654 46.57143
9.4433088 10.899257 8.5485153 44.208336
10.037828 4.415246 10.098172 36.333332
9.8783798 4.7015891 10.100349 37.400002
9.8499966 5.0783219 10.149943 37.533333
9.7814732 5.4451575 10.18025 37
9.4833851 8.7040148 9.4703426 42.5
9.3155718 9.0349607 9.3449001 47.125
9.3912659 9.290329 9.218935 44.1875
9.2488708 9.7366905 9.0500107 46.071426
9.3125591 10.040387 8.9113321 43.785713
9.1446629 10.463977 8.7598104 45.571426
9.1780319 10.770126 8.620122 43.833336
9.0661287 11.037654 8.5081797 38
9.5149384 4.6584969 10.086526 38.033333
9.4590597 5.009902 10.122699 37.666668
9.3384304 5.4796228 10.152774 37
9.2644348 5.7156091 10.167298 36
9.0501823 9.0110006 9.3919363 47.5
8.9136562 9.3427048 9.2659445 48.214287
8.8806639 9.7107677 9.1050386 49.375
8.9624224 10.116794 8.9217205 44.833332
9.1647854 4.6174812 10.085835 38.099998
8.9921322 5.0132418 10.09827 37.047619
8.9738293 5.4183969 10.13409 37.277775
8.9034729 5.7768531 10.154764 36.125
8.731472 9.1470346 9.3642712 47
8.7438297 4.6599813 10.060285 37
8.6152954 4.9557838 10.081855 37.516666
8.6037693 5.3471961 10.108562 36.555553
8.5888453 5.7466388 10.13684 36.714287
8.3455791 5.9888735 10.146568 38
8.2250481 4.8687181 10.06608 35.700001
8.2269297 5.2541823 10.089078 37.07143
8.1298647 5.7233987 10.122875 38.357143
8.0162783 6.0071416 10.131908 38
7.8449659 4.9057498 10.056167 36.666668
7.7721829 5.2473044 10.084791 39.950001
7.7653484 5.6294007 10.103868 38.827778
7.8322945 5.9470143 10.12001 37.333332
7.4137235 4.9223056 10.053835 37.25
7.4397092 5.1989784 10.077255 39.75
7.5159726 5.6222739 10.090411 30
7.2034988 4.8896313 10.045679 36
15.468527 6.3353987 10.332332 39
15.157928 6.643508 10.114457 41.666668
15.260361 6.8705802 9.9487028 39.333332
15.03615 7.2537227 9.7213478 47
15.022594 6.3474927 10.339401 39
14.924526 6.5580788 10.203338 43.166664
14.89889 6.9498191 9.9299994 39.599998
14.992582 7.172915 9.7664776 40
14.648491 4.1937871 10.695357 28
14.486744 6.558578 10.20356 40.75
14.391706 6.8576446 9.9741898 39.799999
14.512213 7.1137929 9.8003635 40
14.289471 4.1528869 10.626487 28.5
14.340925 4.5286689 10.688014 31.5
14.095158 6.2844911 10.362674 38
14.2013 6.4658217 10.250955 40
14.017126 6.8359742 10.040474 39.833332
13.995453 7.2060323 9.7971773 40.333336
14.044485 4.0161376 10.555923 30.75
13.945898 4.4755549 10.592994 34.666668
13.82481 4.9029098 10.629968 31.666668
13.837576 6.4857574 10.276854 39.5
13.59565 6.7730422 10.100194 41.166668
13.599461 7.1543083 9.861763 41.166668
13.510742 7.361093 9.7383385 45
13.593197 4.4267178 10.515542 35
13.453838 4.8266783 10.553356 32.333332
13.377176 5.2760773 10.591459 32.333336
13.27252 6.5100517 10.287072 39.666664
13.216457 6.7516179 10.139805 40
13.197165 7.1083503 9.916811 41.333336
13.119448 7.3638687 9.7623453 40.333332
13.331425 4.4269342 10.465286 33
13.103958 4.7521467 10.479616 32.25
13.071808 5.2380018 10.526727 33.333332
12.895761 5.605731 10.539693 33
13.047379 6.4507747 10.327132 38.5
12.798319 6.733192 10.155221 39.166668
12.822329 7.0805182 9.9540339 40.291664
12.822512 7.3980165 9.7794724 40.25
12.832909 4.724947 10.425291 32.5
12.654697 5.0953493 10.439914 34.833336
12.712811 5.455667 10.508464 33.333336
12.475037 5.7850327 10.487627 34
12.545822 6.3343482 10.365532 38.166668
12.450031 6.6839519 10.213971 39.5
12.450758 6.9925971 10.038519 40.650002
12.348267 7.4582925 9.7759113 41.916664
12.258261 7.6165986 9.6923265 46
12.214828 5.0857534 10.370871 34
12.281496 5.4555311 10.435147 33
12.18959 5.9317465 10.438673 36.200001
12.044439 6.3458352 10.36802 36.416664
12.075274 6.6361899 10.251929 42
12.087156 6.9405799 10.090406 42
11.98885 7.3677392 9.8510838 41.924999
11.850878 7.7068372 9.6906528 44.5
11.967735 5.0505033 10.34461 33
11.762619 5.3827019 10.341915 34.625
11.822741 5.7599783 10.395755 34.950001
11.631752 6.2777181 10.366239 39.5
11.590799 6.660409 10.240437 38.25
11.727812 6.8773036 10.135508 41.083336
11.632929 7.2626014 9.9444132 40.583336
11.542471 7.6908565 9.7401505 42.700001
11.497065 7.9238019 9.6255484 42
11.624249 5.0922513 10.306756 34
11.378153 5.3831587 10.297634 34.5
11.409025 5.7189507 10.333694 34.375
11.229143 6.2109466 10.342228 37.599998
11.229694 6.5960402 10.274831 40.583336
11.184128 7.0067363 10.114985 39.857143
11.189297 7.2962384 9.9684839 41.333332
11.189754 7.5884986 9.8305168 42.607143
11.073807 7.9980817 9.6346445 40
11.02475 5.3816566 10.259917 36
10.999144 5.6734242 10.282769 36.666664
10.926628 6.0746851 10.316189 36.200001
10.867706 6.5388899 10.300584 37.833336
10.815611 6.9098134 10.186901 39.900002
10.730459 7.3055434 10.000444 41.071426
10.638529 7.6884336 9.8191328 41.071426
10.753139 7.9294419 9.6917334 39.833336
10.608461 8.2110739 9.5803738 46
10.647701 5.658587 10.247287 36.125
10.461048 6.0954766 10.295499 35.666664
10.481962 6.4645267 10.302137 37.291664
10.436106 6.8239684 10.219947 38.625
10.394482 7.2304502 10.051754 38.650002
10.333372 7.624434 9.8803816 41.5
10.238935 7.99507 9.7170391 41.309525
10.338717 8.2168121 9.6070738 41
10.200556 5.6880879 10.230008 35.666668
10.055956 6.019937 10.250606 35.799999
10.085451 6.3896604 10.278188 36.125
10.077356 6.749702 10.228587 38.25
10.054758 7.125319 10.123899 38.729164
9.9998226 7.5128288 9.9614687 39.904762
9.9081192 7.9116302 9.7999525 40.875
9.8162308 8.310667 9.623724 43.200001
9.903017 8.5231838 9.5176773 41.5
9.7411556 5.7032385 10.21614 35.25
9.6852207 5.9755101 10.216682 36.75
9.7176838 6.3274961 10.238739 36.099998
9.6531935 6.7532678 10.23208 37.452381
9.5389862 7.228168 10.12596 42.3125
9.461091 7.5682378 9.9914246 42.708336
9.5111713 7.8995681 9.8322773 42.416668
9.5393333 8.2033129 9.6889133 42.5625
9.4274426 8.5611401 9.5350456 43.25
9.3444901 5.935658 10.188154 36.416664
9.2612991 6.3023572 10.209551 36.777782
9.2818441 6.6734796 10.230803 38.111111
9.199934 7.1307817 10.177371 40.885715
9.1721373 7.4648137 10.055014 42.057144
9.1148434 7.8491549 9.8915501 43.583336
9.027647 8.2686949 9.7182045 49.208336
8.9176292 8.6274414 9.5852432 47.777779
9.0018578 8.8649664 9.4630632 48.049999
9.0294304 5.9049377 10.17082 36
8.89608 6.2369065 10.192473 36.222225
8.8431702 6.6685934 10.210674 39.299999
8.7928572 7.0833154 10.194737 40.507938
8.7499123 7.4387894 10.113582 45.083332
8.6902876 7.8127079 9.9752254 50.388889
8.719471 8.1515875 9.8239098 50.155556
8.6417847 8.52701 9.6646395 47.977779
8.6671076 8.9333134 9.4803848 48.285713
8.5569859 6.1739917 10.165087 37.111111
8.4211349 6.616178 10.192034 37.547619
8.4347334 6.9841905 10.200329 43.25
8.3430843 7.4495244 10.134032 42.8125
8.4133635 7.7641797 10.034138 43.625
8.420764 8.2894239 9.8024693 32.333332
8.1556492 6.1585011 10.144634 36.966667
8.1390247 6.4426703 10.167893 38.125
8.09408 6.9334359 10.190557 38.400002
7.795548 6.2120986 10.159605 34.75
15.670088 5.7835431 10.744073 37
15.529215 5.5824666 10.859705 38.5
15.269407 5.9549994 10.608158 39.333332
15.391914 6.1829648 10.444407 41
15.056152 4.7499471 10.893718 29
15.086128 5.1771164 10.915039 35
14.997124 5.5636954 10.829874 38
14.983931 5.8689876 10.665024 37.25
14.925993 6.1622252 10.472675 40.5
14.795713 4.5969677 10.819476 28
14.610743 5.0550876 10.809702 33.25
14.596085 5.4366093 10.806698 37.5
14.684778 5.7838426 10.703723 39
14.503698 6.1743722 10.464192 41.25
14.625906 6.3643746 10.357367 40
14.441557 4.7684884 10.746211 31
14.304794 5.039413 10.743542 32.5
14.233501 5.3538289 10.758698 34.5
14.203766 5.7574081 10.674288 38.200001
14.19647 6.0649047 10.512679 41.833336
13.861088 5.2631512 10.685885 33.5
13.725933 5.7689447 10.617393 37
13.770981 6.06635 10.513678 37.333336
13.736675 6.3104663 10.387447 42
13.389238 5.6528215 10.604918 35.75
13.363935 6.0548825 10.525993 38.166664
13.332701 6.2965612 10.407922 38
13.154379 5.6263251 10.59406 35
12.924345 6.0185175 10.514598 36.375
12.942457 6.2834754 10.422823 38.666668
12.662878 5.9529495 10.510855 38
18.361359 5.8565965 -4.1270113 12.5
18.612852 6.6791272 -4.1425433 13
18.686434 6.9556155 -4.3807979 12
17.545046 2.9776354 -3.3334806 16
17.64579 3.3863583 -3.3567998 14.333333
17.78746 3.8822565 -3.4700243 13
17.821701 4.0169282 -3.5980518 14
19.163815 8.7562323 -4.2438064 12.5
19.22617 9.0104046 -4.4424062 12.5
18.543018 6.4591694 -3.9523017 11.5
17.446241 2.6823134 -3.0408471 15
17.559162 3.1603465 -2.9557016 14
17.668949 3.4840531 -3.0890183 15
19.158255 8.4185009 -3.9733927 9
17.596224 3.2630191 -2.5582421 11.5
17.642643 3.4759846 -2.7585464 12
18.696096 7.4021087 -3.1798382 8.5
18.820997 7.7032204 -3.4171598 7.3333335
17.515146 3.0498838 -2.3542616 14
16.891479 6.3480706 -2.4417915 4
16.893696 6.4816155 -2.552299 5
11.280883 9.5722923 -2.9018843 7
11.072924 9.5855427 -2.9420404 7
10.744539 9.8891478 -2.9466324 4
16.973946 7.6958871 -2.4391026 9
16.021288 4.9378257 -1.5920006 10
16.115103 5.2461634 -1.7124965 9
16.214075 5.5629234 -1.836327 9.5
16.35461 6.0766478 -1.8817152 9.333333
16.443098 6.2718868 -2.0341105 9
16.536789 6.6445775 -1.9916028 10
16.7033 7.2685061 -2.1393309 10
16.621012 7.8423052 -2.3070719 8
15.192957 2.3872542 -1.0196346 15.666666
15.333785 2.7719095 -1.067899 12.9
15.441609 3.0666516 -1.1890397 12.5
15.522304 3.3408823 -1.3130726 12
15.670306 3.7824135 -1.3977927 11.25
15.80281 4.23595 -1.4540128 10.5
15.875072 4.4816942 -1.5083389 10.5
16.432278 7.9971271 -2.4523015 6
14.998339 2.2088094 -1.0016739 21.5
15.4762 8.1517115 -2.3635359 9
13.118811 8.8127308 -2.3862634 8.5
12.86023 8.8679104 -2.4684949 8
12.475812 8.9697952 -2.4649668 7.5
12.101354 9.0659647 -2.4567223 9
11.632606 9.2219238 -2.5222206 8.916666
11.343854 9.3326387 -2.6392591 8.625
11.347044 9.4395142 -2.8128393 8
10.938447 9.4539614 -2.557441 8.1000004
10.835186 9.6333027 -2.7879367 6.25
10.397715 9.5943918 -2.5085618 8.6000004
10.728972 9.77703 -2.8862202 9
10.08954 9.6856213 -2.5013092 9
10.212589 9.6938543 -2.7041361 6
9.7019405 9.7746716 -2.5158529 9
9.6873207 9.7850342 -2.5233853 8.25
9.4827042 9.8371105 -2.4866624 9
16.008411 4.9095464 -1.4315053 9.75
16.121548 5.3047647 -1.4414126 9.75
16.266981 5.805162 -1.5002366 9.875
16.364471 6.1370511 -1.5981723 9.666667
16.466263 6.4885926 -1.7108721 10
16.59269 6.9447236 -1.7539159 9.25
16.671913 7.1948395 -1.9405428 9.666666
16.770651 7.7206864 -2.009964 13.833334
16.520519 7.9296904 -2.0298393 8
15.270979 2.3682983 -0.69438493 12.333334
15.350372 2.7933369 -0.81246954 11.75
15.462228 3.18541 -0.86191988 12.25
15.55771 3.427464 -0.89751518 11.666667
15.672856 3.8285756 -1.0972944 10.5
15.796524 4.2268934 -1.1372038 10.5
15.907976 4.6379962 -1.2044514 11.166666
15.973667 4.914372 -1.3028421 9
16.307446 7.9772696 -2.1007142 8
14.971106 2.1037607 -0.58696902 22.5
15.076766 2.3823369 -0.70119536 19.5
