# .PCD v0.7 - Point Cloud Data file format
VERSION 0.7
FIELDS x y z intensity
SIZE 4 4 4 4
TYPE F F F F
COUNT 1 1 1 1
WIDTH 1272
HEIGHT 1
VIEWPOINT 0 0 0 1 0 0 0
POINTS 1272
DATA ascii
2.6234536 4.5473886 2.2757225 11.521576
3.0579219 4.6184664 2.2659924 11.426777
3.4270189 4.5667429 2.2120049 9.8759861
3.7796252 4.5937195 2.2301822 8.0013742
4.2362099 4.5892882 2.2444375 7.7563839
4.6387205 4.5875654 2.2275081 8.2098904
5.0644054 4.6016541 2.1959403 8.2004929
5.367383 4.4827213 2.167352 8.8381872
5.7936888 4.6466675 2.1326814 8.9413023
6.2184396 4.5841546 2.1081731 8.90131
6.6930995 4.6039486 2.0851429 8.0444441
6.9618654 4.7426386 2.0969906 10.472222
7.3764906 4.7743959 2.1273599 17
14.711877 4.4800062 2.2325335 39.141666
14.851868 4.7273412 2.2515521 38.916664
17.91357 4.7303782 2.2720575 15
-1.767514 5.0537071 2.2726545 8.9187498
-1.444415 4.9376121 2.357156 8.2232141
-1.0059359 5.0018001 2.3597231 8.988492
-0.64516979 4.9958034 2.3670628 8.6001978
-0.19294065 5.0573721 2.3779292 8.9019537
0.20592469 5.0277553 2.3875234 8.7996655
0.56245244 5.0089779 2.3776922 8.3911114
0.97784251 4.9741907 2.226728 8.0188808
1.4979227 5.0030303 2.0529633 8.9254494
1.8789198 4.9868326 2.0321245 9.8893032
2.3601635 4.8946738 2.1047285 8.9645348
2.6479957 4.9807816 2.2164936 8.9360857
2.9898603 4.9978447 2.2375839 9.4329243
3.4303689 4.9556832 2.2949185 8.7248592
3.824661 4.978663 2.2736928 7.3695474
4.2636113 5.0458012 2.254241 7.5430894
4.6563601 4.9758172 2.2272825 8.2686157
5.0065241 5.0260978 2.2025619 8.2755451
5.4272261 4.9347968 2.1505589 9.3013811
5.8143845 5.0084624 2.1362307 9.1868591
6.1372437 4.9735222 2.1128163 9.068182
6.4989944 5.0299373 2.107291 7.2402778
6.9782314 4.9934554 2.0906956 7
7.4088573 5.067378 2.0604136 8.4375
14.737701 5.0681419 2.2361388 50.631248
17.978489 5.0345697 2.1828508 13.875
-2.0236416 5.5325613 2.3755691 3
-1.8087856 5.3999953 2.2732975 7.3982992
-1.4132763 5.3915381 2.3502684 9.4182539
-0.99994618 5.4795566 2.3499846 8.8298187
-0.62886977 5.3997731 2.35607 9.0756617
-0.2214652 5.3944831 2.3751044 8.7105827
0.21108221 5.4140878 2.3762512 8.9462585
0.56715107 5.3649487 2.3483305 8.057539
0.81912661 5.3491759 2.3868282 6.5
3.0873146 5.256741 2.2074926 9.643652
3.4499292 5.4038582 2.197422 15.974901
3.8219974 5.4502649 2.215657 13.464374
4.2329187 5.436687 2.2952938 8.7991095
4.5819345 5.3940582 2.2414048 7.9605808
4.9425488 5.3709016 2.2047846 9.0163965
5.4279928 5.3258362 2.1535342 8.887043
5.7607727 5.303257 2.129889 9.3557091
6.2244401 5.3895464 2.1148195 8.2294054
6.6158776 5.4303398 2.1048222 5.7999997
7.1033463 5.4432564 2.0904741 6
7.3962669 5.4355431 2.0709982 9
7.7493949 5.3591008 2.0480065 8.6904755
8.129755 5.5622349 2.0239184 9.5
8.4348202 5.4566932 2.0454521 9
14.644603 5.4906526 2.1689856 41.691669
17.968866 5.3131676 2.1399138 9
-2.1106405 5.7959023 2.3125694 2.95
-1.832165 5.82374 2.2944422 9.8719139
-1.3456503 5.767549 2.3368592 8.791666
-1.0431857 5.8167324 2.3527114 8.8999996
-0.66254467 5.7673974 2.3546693 8.7425928
-0.17745459 5.8018384 2.3746428 8.8455553
0.17688793 5.8330827 2.3773861 8.9122686
0.58920044 5.7895126 2.3800311 7.2166662
3.8543286 5.694263 2.1654925 15.316342
4.2640977 5.8349638 2.1959183 13.967933
4.5712776 5.8551402 2.2180138 9.1029005
4.9659872 5.7408972 2.1995251 9.1632442
5.3697124 5.6719394 2.171169 8.941288
5.7965374 5.745904 2.1357756 8.6546745
6.150259 5.7967114 2.1364412 8.2932539
6.5300417 5.8012133 2.1220579 6.8194447
7.0500956 5.798461 2.092638 7
7.3723392 5.8671737 2.0702808 9
7.8235745 5.8472672 2.0459151 9
8.2345533 5.8643322 2.0195987 9.1333342
8.5793152 5.798902 2.0133495 5.916667
8.8541088 5.7117395 2.0160995 10
14.588434 5.847671 2.2654853 50.612499
-2.4356742 6.2969713 2.2742667 7
-2.3802972 6.2409201 2.2611246 10.75
-1.8537898 6.2326503 2.3209834 11.028126
-1.4742626 6.1912541 2.3401024 9
-1.0869879 6.1931367 2.3509076 8.677084
-0.61343658 6.1669068 2.3669159 9.1374998
-0.20453525 6.2429662 2.3702168 9.1541662
0.23467374 6.2422986 2.382354 8.6638889
0.460722 6.2385345 2.3768327 6.6666665
4.3135285 6.0974517 2.1188116 16.102777
4.5360851 6.1777267 2.140162 11.855104
4.953053 6.2626643 2.1387558 7.9799194
5.4397855 6.14184 2.1732049 9.2321434
5.8666077 6.1646967 2.1419523 8.2151508
6.1031094 6.1349564 2.1227856 8.0529099
6.5531716 6.2342863 2.1165626 8.53125
6.9573402 6.2613902 2.0928497 8.9333334
7.3126035 6.3241491 2.0656605 9
7.7518721 6.2599449 2.0465717 9
8.1201725 6.346921 2.0353541 9.2222223
8.5263958 6.3051891 2.0069253 9.3888884
14.520951 6.1854882 2.2660072 36.527779
-2.4689586 6.4620409 2.1663356 16.457222
-2.0025854 6.4012742 2.3434942 9
-1.8474725 6.604835 2.3294213 9.083333
-1.4640359 6.5438256 2.3385513 8.5083332
-0.97850704 6.5441852 2.356215 8.479166
-0.58392251 6.5551662 2.3684771 8.510416
-0.16717292 6.5780869 2.3774524 8.1333332
0.22892085 6.5859952 2.3816252 7.9083333
0.5000937 6.6097527 2.3729258 6
4.5872698 6.5737834 2.1478295 7.8809524
5.0328484 6.4732647 2.0801537 5.28373
5.4508438 6.5800858 2.1290193 7.0316963
5.7596817 6.5727057 2.1625915 9
6.1193991 6.6198101 2.1385579 8.4074068
6.5690985 6.5847931 2.1146555 8.1527777
6.927248 6.6585722 2.0953875 8.6071434
7.3602662 6.6607656 2.062968 8.9285717
7.6840749 6.7190928 2.0548234 9
8.104495 6.7238903 2.034832 9
8.5548363 6.7118449 2.0115936 9
14.479202 6.5991125 2.1334386 15.9375
17.795002 6.7593026 2.0780716 21
18.163586 6.5722213 2.2927165 12.75
-2.1496305 7.1250296 2.1719439 13.958333
-1.8182338 6.9802785 2.3314157 10.604166
-1.3599563 6.9549546 2.3481438 9.25
-1.0929954 7.0590858 2.3586686 9
-0.59915179 6.9828143 2.3750346 9.4722223
-0.26273671 6.9445872 2.3762517 9.0625
0.1737013 7.0210929 2.3803852 8.041667
4.7268128 6.9215498 2.0660803 5.5857143
5.7570829 6.8327498 2.1464789 9.25
6.1714296 6.9395914 2.1424129 8.7333336
6.5073609 7.0511279 2.1227791 8.6269846
6.9329162 7.0181518 2.089443 8.5
7.2996874 7.0598474 2.0580764 8.7023811
7.7434683 7.0909295 2.0545793 9
8.1647873 7.0860171 2.0303695 9.3000002
8.4249153 7.1613674 2.0100996 9
11.244839 6.8605409 2.3898048 9
18.557894 7.0575743 2.3199403 12.666667
-6.6391473 7.2898083 2.2775493 35.25
-6.3001246 7.4754229 2.2736933 59.694443
-2.1901169 7.3982477 2.1920164 10.15
-1.3685293 7.3012872 2.3476517 9.333333
-0.85015959 7.292881 2.3655963 9.25
-0.55480093 7.3719802 2.3751128 9.333333
-0.13672806 7.4776092 2.3833377 9.7777777
0.21984214 7.3478565 2.3724961 6.6999998
6.6029625 7.3650274 2.0846772 7.916667
6.8853059 7.4556136 2.0828006 6.8055558
7.4921718 7.3568201 2.0478575 8
7.7846909 7.4656358 2.0560634 5.9833336
8.1461601 7.4702024 2.0286605 7.0500002
12.230299 7.4890065 2.3578548 7
14.542654 7.4372168 2.1431255 6.25
18.675053 7.5269132 2.3830543 13.25
-5.7701383 7.7978973 2.2474971 47.17659
-5.5000706 7.9763045 2.1727045 26.944445
-3.0776136 7.7998471 2.2446179 15
-2.1799822 7.83144 2.219662 9.4375
-0.87282157 7.715754 2.3581233 18.5
-0.16919325 7.7950287 2.3865175 8.916666
0.16654848 7.7686434 2.375303 6.6666665
7.3642573 7.8020997 2.058979 7.375
7.6918583 7.8382335 2.0665359 10.533334
8.2790184 7.7959352 2.0262311 9.9444447
8.973999 7.9160519 2.0077055 10
12.882662 7.8518791 2.2814205 5
14.505219 7.9295516 2.3913713 6
18.669329 7.7340283 2.1115823 13.833334
-5.0105257 8.2829514 2.1368136 35.325001
-2.2427738 8.2046642 2.1909087 8.791667
-1.2646453 8.369071 2.3931217 17.75
-0.73097491 8.1735744 2.356596 10
-0.18293646 8.2170095 2.3869967 9.8125
0.11278757 8.1795006 2.370364 6.25
8.1633425 8.1384659 2.0509186 9
8.4522781 8.2691231 2.0417802 9.5
13.074186 8.0226526 2.288846 7
13.360161 8.2456226 2.3152628 6
14.363464 8.3822851 2.2538836 7
14.446179 8.1596851 2.1756184 6.5
18.885389 8.2434111 2.2104876 13.944444
-4.5332985 8.5521383 2.1781673 40.055557
-3.7324526 8.725997 2.1066182 16
-2.3607726 8.5304661 2.3496649 10
-1.5474308 8.7417145 2.3997929 22.75
-0.98184037 8.5486946 2.3721266 4.5
-0.56465399 8.6187391 2.3800838 4.375
-0.18611182 8.5993013 2.3827305 8.166667
0.12233541 8.4441938 2.3668778 4
14.228806 8.6571722 2.2477739 7.0833335
18.999773 8.6288185 2.2156076 14.625
-3.8079491 9.0219078 2.3884621 18
-2.553375 8.9839096 2.308131 32.5
-0.99043775 9.0282631 2.3494716 21
-0.49938229 9.0075102 2.3784735 10.5
-0.25079775 9.0639858 2.3787351 7.5
0.048581645 8.9069862 2.3603659 4
9.5575314 9.051445 2.0082436 22
13.990648 9.1275444 2.2584729 10
14.034217 9.0205345 2.2600527 8.947916
14.53392 8.9749994 2.2459302 6
19.098398 8.9617939 2.2014303 13.333334
-4.1642275 9.4547672 2.1109037 22
-2.5339444 9.3563004 2.3245537 21.5
-1.3253714 9.401948 2.3573453 9.666667
-0.98329592 9.4669304 2.37939 4.5
-0.64941841 9.3297415 2.3785114 7.75
-0.23835427 9.3301058 2.3703911 9.166667
13.968549 9.3886862 2.3087337 9.3055563
14.02161 9.2475424 2.0074279 9
14.926474 9.2720613 2.278409 4
19.155012 9.2000751 2.235101 15
19.269335 9.4621649 2.2951 11.666667
-4.303659 9.6918793 2.0408134 22
-2.7804525 9.7812214 2.272613 26
-1.6065741 9.6159773 2.3635724 4.5
-1.4384835 9.7880192 2.3521886 5
-1.1925697 9.8751135 2.3446345 4
-0.62644494 9.7497444 2.3772697 17.666666
13.912111 9.7447872 2.2735996 8.833334
19.372234 9.8082714 2.1993003 13.5
-2.8038425 10.340269 2.2758222 29
-2.6726933 10.248932 2.3164344 78.083336
-2.0435941 10.190702 2.339169 6.25
-1.7981844 10.207549 2.3565385 8.5
-1.4990246 10.256142 2.3649287 13
-0.66635591 10.234172 2.3709435 22.5
13.812348 10.248899 2.163317 9.104166
19.485712 10.175683 2.081877 16.333334
-4.9265022 10.693314 2.2002192 10
-2.8247926 10.685718 2.3487368 39
-2.5247023 10.585082 2.2336805 10.222222
-2.239207 10.602842 2.2186134 10
-1.8470351 10.582974 2.2968967 9.8452387
-1.3013314 10.515156 2.3527954 12.75
-1.0489669 10.680512 2.3927495 5
-0.63581777 10.59221 2.3815989 9
-0.35007641 10.516129 2.3749821 5
13.752462 10.523521 2.2571499 10.075
19.563316 10.492974 2.2860866 9.5
-2.8496177 10.95689 2.3318145 24.333334
-2.5844657 10.928712 2.3335569 9.666667
-2.2256465 10.956507 2.3254328 16.5
-1.8060089 11.043526 2.3230748 10.375
-1.4437635 10.845304 2.3321891 12.208334
-1.0028797 10.940212 2.3810835 22.75
13.682736 10.976389 2.2330525 9.5666676
-5.3610353 11.414155 2.3085167 33
-2.9199848 11.409384 2.3104701 13.75
-2.6268392 11.36752 2.3143673 14.5
-2.1681442 11.395383 2.3153152 17
-1.844999 11.427508 2.3258851 18.888887
-1.4132047 11.364354 2.3423996 20.916666
-0.93710363 11.487879 2.362633 20.5
-0.44666088 11.21912 2.3820748 5.25
-0.27789783 11.325113 2.2966218 7
13.579226 11.470061 2.2928772 9.791667
13.611237 11.318462 2.2276466 12
-3.0122662 11.839169 2.3200154 19.166666
-2.7295423 11.726974 2.2913291 23.75
-2.3055072 11.849594 2.3047595 20
-1.8451236 11.834148 2.3050745 23
-1.3597946 11.719272 2.3381751 19.25
-1.0006483 11.861753 2.3589244 33
-0.60537314 11.915176 2.3860307 11.75
13.5191 11.784076 2.2708852 9.541667
-4.9920549 12.285832 2.3421874 138.20834
-3.2114706 12.337675 2.202776 66
-2.6950901 12.187994 2.2836094 29.5
-2.247191 12.354877 2.2930546 26.25
-1.8025106 12.238659 2.3181779 24.166666
-1.4018527 12.086276 2.3530984 24
-1.022211 12.288411 2.3559406 32.166668
-0.59945989 12.008263 2.344811 4
13.486368 12.09919 2.2309086 9.375
-6.2488532 12.753797 2.1392546 35.166664
-5.2750587 12.494489 2.2706106 183
-4.8597231 12.414722 2.397742 143
-4.7396688 12.436894 2.2497568 224
-3.2335043 12.742014 2.2240145 98
-2.9011197 12.566732 2.1449575 11.75
-1.7709765 12.582801 2.3028576 32.5
-1.3348368 12.504156 2.3623426 29.5
-0.74778593 12.419554 2.3376412 17
-6.1092086 12.900686 2.3259511 64.543747
-5.823319 13.103827 2.2144396 70.677773
-5.2394295 12.973351 2.2812185 83.833336
-5.1148472 12.87572 2.265074 108
-2.945478 13.106022 2.1870723 24
-2.6635814 12.864588 2.2826734 37
-2.1957784 12.865429 2.2869034 29.25
-1.8208824 13.04844 2.3093615 26.333334
-1.075464 12.915856 2.333935 32.25
13.741621 13.196743 2.1711144 7.666667
14.05298 13.081867 2.2624786 6.5
-5.6070557 13.24198 2.0211143 65
-5.2633691 13.331795 2.233604 69.5
-5.0534692 13.562575 2.236151 64.31945
-3.290251 13.305387 2.2688525 88
-2.8684919 13.462161 2.2906256 45
-2.6608644 13.380403 2.2946618 36.5
-2.1984465 13.38074 2.3126523 28
-1.9197396 13.476919 2.3018456 30.5
-1.5783769 13.446609 2.3440559 30.5
-1.0863431 13.455299 2.344255 30.666666
13.18746 13.581361 2.2376897 9
13.551439 13.562656 2.2264845 6.541667
13.776088 13.556699 2.3342631 6.8055558
-4.8881855 13.693266 2.2546093 67.989578
-4.6348672 13.858002 2.1577802 82.308334
-4.3373375 13.995307 2.2560399 44.166664
-2.9068394 13.719875 2.2844343 26.5
-2.7188859 13.804702 2.3070414 17.5
-2.3412378 13.637184 2.2815371 31
-1.9292755 13.75618 2.3095112 30.25
-1.5620461 13.876172 2.3649929 35
-1.057537 13.878806 2.3597472 18
11.986141 13.889496 2.2283459 7.6666665
13.159528 13.835997 2.2648609 10.9375
13.277583 13.670209 2.2309449 8.1000004
13.642235 13.744335 2.1092477 7.5
14.226082 13.692184 2.2546709 7.6666665
14.604944 13.857113 2.1516159 8
-4.2214355 14.099654 2.1579177 31.688889
-3.8205152 14.320131 2.1175385 17.28125
-3.3075721 14.114662 2.2957797 50
-2.9165688 14.283283 2.3192511 24.5
-2.5468993 14.111356 2.3740265 73
-2.3376248 14.181184 2.2887018 27.5
-1.8335823 14.253232 2.222167 32.888889
-1.4654764 14.247292 2.3665531 34.5
-1.0164728 14.033159 2.3536797 10
13.087573 14.209801 2.2662106 12.104167
-3.6899426 14.6215 2.2310216 68
-3.4189563 14.631413 2.2214534 79
-2.9396081 14.703529 2.3099265 33.5
-2.5672121 14.575043 2.3418148 27
-2.2127361 14.6449 2.2242999 32.25
-1.7312503 14.514165 2.2992408 34.125
-1.4669989 14.522872 2.2427275 43
12.999287 14.635151 2.2940192 12.770834
-3.7567651 14.919918 2.2150578 14.75
-3.4337592 14.909375 2.1219077 39.375
-2.9564049 14.957499 2.2344649 27.470833
-2.6537166 15.029135 2.2453907 24.783333
-2.3537893 15.196701 2.1433501 9
-1.4191794 14.949807 2.3004146 24.75
12.933472 15.020079 2.2199581 10.953704
-2.7372231 15.354683 2.2603292 31
-2.3875418 15.363483 2.3503432 21
-1.4488714 15.322031 2.3559604 30
12.925318 15.41961 2.2996473 11.75
-2.7233868 15.767399 2.260617 29.5
-2.2927225 15.657458 2.1753635 18
-1.7533138 15.889487 2.287997 32
-1.4148574 15.71632 2.3567994 22
1.3327053 15.758976 2.2734723 12.75
12.980517 15.763584 2.1133897 8.5
13.355131 15.976858 2.0420864 10
-2.7100124 16.199831 2.2606964 25.5
-2.2994502 16.083471 2.3390985 25
-1.6993413 16.300873 2.3176394 28
-1.4792856 16.259991 2.3303771 13
12.674686 16.319489 2.0401878 10.5
12.855334 16.229321 2.2523692 9.375
13.300009 16.241734 2.1434557 11
-2.6752348 16.679169 2.2484167 21.25
-1.4920696 16.534981 2.2629211 4
12.659075 16.550007 2.1682 15.416667
13.273417 16.461411 2.2536497 10
-2.6127939 17.041935 2.2173705 12
-1.6735299 16.945112 2.2795362 14
12.539762 17.0142 2.2104397 15.833334
-2.6189659 17.334396 2.1573613 4
12.476849 17.31616 2.0478504 16
21.445375 -16.230259 2.7407887 17
22.043991 -16.303122 2.5791845 9
22.747932 -15.992953 2.6835897 22.5
23.810047 -15.792555 2.7374969 28.75
23.580891 -15.31912 2.7864008 39
23.878525 -14.892454 2.5532556 50.875
26.256348 -14.878941 2.5854044 22
23.877043 -14.747256 2.6888838 42
24.037853 -14.595643 2.5762124 25
26.484947 -14.746261 2.4589672 18.5
25.710541 -13.614129 2.7663407 37
7.8216052 -13.234108 2.6545756 76.5
25.698606 -13.372174 2.5349424 48.125
7.7195735 -12.974213 2.7347858 49
8.1972122 -12.954291 2.5991991 72.977776
25.694899 -12.966698 2.5994148 53.333332
7.5385046 -12.405204 2.7015924 70
8.3139057 -12.56826 2.731401 64
25.514029 -12.496936 2.5034797 41.666668
25.695539 -12.752153 2.6459541 45.5
7.3126869 -12.354946 2.7380142 49.625
7.8288927 -12.15414 2.7274485 71.25
9.1987553 -12.346186 2.468503 54
9.4065838 -12.214278 2.4411995 55.791664
36.595284 -12.325383 2.7710655 60.5
36.9282 -12.112341 2.7201321 59
37.411076 -12.060036 2.7059872 60
9.8562756 -11.919345 2.5288363 71.875
10.004812 -11.806252 2.5780451 66
37.396671 -11.955339 2.7548137 48
7.7584558 -11.3064 2.5449359 140
37.490738 -11.412725 2.7635746 51
37.611103 -11.215784 2.6741836 39
7.9762917 -11.036944 2.5630767 57.700001
8.1596117 -10.907783 2.6525767 47.5
37.228645 -10.806149 2.6834626 46
25.657398 -10.433566 2.5863509 35
37.098389 -10.599726 2.5492213 57.75
25.758371 -10.195878 2.5287592 39.25
26.221825 -10.084534 2.6273894 25.5
37.008827 -10.18204 2.5606699 58.5
26.115026 -9.7885647 2.6319368 28.75
26.654444 -9.7733793 2.4605973 18
37.127762 -9.8871822 2.7266326 63
36.808189 -9.1907158 2.7542939 51.5
36.733364 -8.7303047 2.6767654 45
5.8291254 -7.8304939 2.7694094 4
12.869538 -7.7705636 2.4587529 73
11.906653 -7.2622509 2.54405 86
12.114765 -7.2780547 2.571548 84.5
12.619039 -7.4640412 2.776957 88
12.906372 -7.3410683 2.4158306 27.25
17.140755 -7.3200307 2.5786781 32.25
1.1972668 -6.9375534 2.752105 3.6666667
1.3144492 -7.0350561 2.6141629 8.5401239
11.984598 -7.1709528 2.5449708 82
12.263556 -7.0559344 2.5236773 77.75
12.643457 -6.8999228 2.5301085 81.783333
13.149378 -6.9343681 2.5501432 51
17.158859 -6.9841151 2.6124694 38.40625
1.1431763 -6.5421486 2.63186 3.4000001
12.737671 -6.6881676 2.4886668 77.388893
13.056643 -6.5409799 2.5020475 53.766663
13.362454 -6.5316877 2.6362627 96
13.721558 -6.433075 2.4281201 50
14.243824 -6.6437473 2.7647667 54
14.68041 -6.4304566 2.4109921 46.833336
17.352325 -6.6503406 2.5852385 33.459724
17.698698 -6.4805408 2.5553558 21.916666
18.055386 -6.7309098 2.7586963 9
1.085549 -6.0955138 2.6166508 3.3333333
6.797214 -6.0284233 2.6007276 5
6.9248676 -6.0196934 2.6743324 14.75
13.279379 -6.3083377 2.4275813 43.666664
13.756874 -6.1616826 2.5191002 77.466667
15.113411 -6.3105664 2.5438509 35.583332
15.449124 -6.0928078 2.5040598 35.149998
1.0069224 -5.623776 2.6327953 9.8628473
6.9111977 -5.9359698 2.7330372 9.666667
15.576158 -5.9553952 2.4914992 34
15.954982 -5.7714462 2.5509338 22.25
16.226334 -5.7063828 2.5509326 11
25.795689 -5.6611729 2.6235394 67.5
0.93654424 -5.4507861 2.6014214 5.1041665
6.8170156 -5.4718714 2.7596569 4.25
16.378401 -5.5438356 2.7621727 35
16.526161 -5.4479122 2.5100551 18.725
25.778572 -5.4265232 2.6383848 68.666672
0.67316765 -4.9713545 2.6781201 3
0.83486646 -4.9999261 2.666445 3
6.6756549 -4.9139509 2.596215 3
17.036551 -5.0185471 2.66506 9.5
17.302916 -4.89431 2.7125442 9.25
25.837717 -5.0519371 2.5551014 44.25
26.192162 -5.025907 2.4571495 28
27.850708 -4.8110733 2.6148112 48
0.76514196 -4.5930643 2.6876948 3
4.2186198 -4.7159195 2.7904465 27
6.6413498 -4.5146813 2.5807991 9.4360676
17.824486 -4.5680132 2.7714064 10
27.83906 -4.6305957 2.6001704 36.625
0.6855197 -4.1351423 2.6358833 9.8112097
0.80188346 -4.2154765 2.6861565 14.5
3.9037938 -4.1416254 2.597295 20.75
6.6472855 -4.3054743 2.5823901 4.1666665
18.15135 -4.3641043 2.6213551 10
18.574036 -4.0778108 2.7092071 9.6333332
27.839035 -4.2732325 2.5303717 28.5
28.081556 -4.0782542 2.6161625 27
0.58637661 -3.7901351 2.6193275 3.6241732
3.1187956 -3.9347243 2.6897774 17.164883
3.4118965 -3.7318606 2.6270061 21.508448
3.7162464 -3.8465645 2.6004069 9.3888893
6.6063371 -3.9576926 2.479619 4.25
18.685753 -3.919142 2.5947151 9.833334
19.062485 -3.8218834 2.6223698 9.5
29.22415 -3.9215398 2.6893163 40
29.745365 -3.7432945 2.7132103 54
30.019743 -3.6102221 2.7228501 42
0.35371959 -3.275753 2.5859432 3
0.49419421 -3.3665981 2.6238804 3.4446521
6.318224 -3.2915044 2.6430717 7.4444447
19.19199 -3.5853896 2.7348042 9
19.673643 -3.3696041 2.649044 10.666667
30.84726 -3.5403998 2.7832625 42
0.72345793 -2.9028113 2.4734075 8
0.94932485 -2.8337088 2.4420595 6
6.3525548 -3.0959921 2.5946395 8.5743685
6.4338722 -3.0552862 2.5807731 4.7099204
20.246264 -2.8919237 2.7411776 10.166666
0.39621389 -2.5990727 2.4823985 12
0.67487097 -2.5950735 2.449285 8.6689816
0.98789614 -2.5395813 2.4510999 8.7757139
1.3959497 -2.499269 2.4527812 8.6077433
1.8024919 -2.4572325 2.4487784 8.7884836
2.1137228 -2.4507406 2.4560483 7.7904434
6.2973261 -2.5280051 2.5734847 4.2582655
26.490288 -2.4773641 2.738359 42.333336
0.63451397 -2.1447399 2.4401205 10.583145
1.0124195 -2.1703241 2.4461255 9.2963543
1.4018126 -2.1664541 2.4762099 9.5794706
1.7690443 -2.169868 2.4828596 9.8298492
2.0462778 -2.1612699 2.4963481 9.4266043
6.2539983 -2.1597009 2.6342313 5.0175924
26.449974 -2.1395636 2.7121744 47.083336
-3.7052214 -1.8712139 2.443434 5
-3.1452506 -1.7788041 2.4003372 7
0.21663141 -1.6926478 2.4381545 7
0.60791183 -1.7555692 2.4837976 20.264181
1.0025866 -1.7424605 2.4843795 25.978363
1.401507 -1.7509354 2.4733114 14.310959
1.8541734 -1.795302 2.5171742 12.794166
2.0188315 -1.8161623 2.4287515 8.0972223
6.1704597 -1.8434877 2.5518408 30.9069
6.4800787 -1.8890784 2.5792696 117
26.409065 -1.8569243 2.6790175 51
-7.8902049 -1.4511131 2.6593218 62.924999
0.30288506 -1.3266048 2.4930921 18.708332
0.59340417 -1.3615305 2.5504594 19.490789
1.0008081 -1.3615326 2.5109348 22.100449
1.3869942 -1.339103 2.4756103 16.188679
1.836441 -1.3874167 2.5171072 15.504866
-7.7646608 -1.0110241 2.4842827 48.166664
-5.2797718 -1.0086697 2.7014694 10.5875
-5.1496639 -0.85091907 2.7943971 3
-1.3452882 -0.8311857 2.4782548 8.5
-1.1060852 -0.81236464 2.429023 9
0.22982749 -0.87622631 2.5647807 7.6750002
0.56936765 -0.94296038 2.5337515 11.565833
0.99633902 -0.96982574 2.5158744 9.381072
1.3789585 -0.97071046 2.5029972 10.856665
1.794384 -1.0120785 2.5398645 12.052368
-4.8351984 -0.69909704 2.7133026 3
-4.2747412 -0.43903694 2.4205737 3
-1.3464191 -0.51305437 2.4295254 9
-0.9924643 -0.53547168 2.5119808 7.7654681
-0.6859706 -0.53475642 2.5528865 8.6656551
-0.28717604 -0.46310598 2.5398133 10.589029
0.16709551 -0.51780355 2.6010463 8.2735348
0.60229284 -0.52620155 2.648427 8.2486877
1.0467865 -0.56045771 2.6093612 8.4957342
1.4559128 -0.60342073 2.4953287 11.371751
1.7349062 -0.52920097 2.543371 9.7175055
7.0414448 -0.4129107 2.6219492 23.222223
-7.5723968 -0.082188249 2.6927006 8.583333
-4.1016436 -0.25860876 2.6075597 8.3000002
-3.9008515 -0.14335948 2.5207026 5.3680558
-1.6242753 -0.11855535 2.4506445 9
-1.3166075 -0.16646361 2.4317541 9.2263069
-1.0064009 -0.21848433 2.5307312 7.2890439
-0.63714325 -0.11460365 2.5247943 15.705854
-0.12788108 -0.22643586 2.5617638 19.623251
0.18991764 -0.2509568 2.6017606 17.576738
0.54825532 -0.23755863 2.6088479 7.838037
0.94663322 -0.19178611 2.6169732 10.038019
1.3809117 -0.19120935 2.5359161 21.833351
1.7297662 -0.23510854 2.6044147 13.543985
6.9796333 -0.20025003 2.5331891 19.458651
-3.8843381 0.022779763 2.7892053 3
-3.4044864 0.23055983 2.555922 2.6333334
-3.0722392 0.38443393 2.6577809 3
-1.4345534 0.25916046 2.5998185 5.5999999
-0.9927547 0.20511295 2.5347788 21.70122
-0.64190656 0.17084478 2.5286574 11.163791
-0.22662206 0.26276264 2.5116498 9.5649319
0.1813311 0.22983974 2.5757895 35.262856
0.58765692 0.2942726 2.6690819 11.364353
1.0118688 0.26018834 2.5676229 9.3444042
1.4223605 0.18319719 2.6396108 25.418644
1.6180149 0.18220742 2.5405314 9.6616926
6.9839416 0.15003645 2.5911126 20.725157
7.2986207 0.25747138 2.6174488 9.6499996
-3.5126786 0.64781332 2.7950664 2.125
-2.924494 0.48548794 2.5873744 9.4486189
-2.6338127 0.70549011 2.5841954 4.3033161
-1.6756821 0.65929568 2.4218216 9.333333
-1.2798626 0.66310668 2.5192313 8.3888893
-1.0302867 0.5877828 2.530431 9.3608255
-0.60421091 0.62664044 2.5161881 10.373766
-0.18323283 0.61646003 2.5121753 13.698871
0.20530432 0.57480878 2.5172486 14.709696
0.62262434 0.66313881 2.5405326 28.57963
1.0053525 0.60637325 2.5215786 14.709558
1.4281584 0.63787472 2.5485415 11.734972
1.636935 0.42196932 2.4012513 9
2.3964236 0.78185201 2.7687299 10.601458
16.826134 0.76075256 2.4734581 18.916668
17.494074 0.72988105 2.6554341 25
-4.2276835 0.86281025 2.6640301 8.6000004
-2.2117796 0.93951738 2.5692666 3.382576
-1.9819963 1.1358058 2.5865276 3
-1.327377 0.99954653 2.5492833 8.0530939
-0.94285315 1.0260063 2.5432618 8.8114681
-0.51772404 0.97821391 2.5122828 8.1723595
-0.18504922 1.0119673 2.5015051 9.2127542
0.19567034 1.0100858 2.4930542 9.3920269
0.54782104 1.0207579 2.4829757 10.106757
0.99723268 1.0142958 2.5310919 11.190436
1.4078273 1.0317785 2.6034272 12.879265
1.7884194 1.1103255 2.7608933 17.112499
2.2382746 1.0284878 2.7552409 15.053548
2.5101836 0.94786024 2.7372978 15.91081
15.729134 1.121151 2.5609384 46.75
17.443081 1.0395938 2.6384664 36.675003
-1.7688084 1.3494502 2.7863348 8.875
-1.3929632 1.4412062 2.5562625 7.825439
-1.026288 1.424664 2.5404165 11.404393
-0.56406504 1.4033455 2.5408952 8.4856329
-0.1889893 1.4289286 2.5645061 13.134581
0.19330698 1.4104328 2.5092063 15.905934
0.60654294 1.4175853 2.4968727 11.144233
0.97189891 1.4299744 2.5071926 11.706471
1.3966799 1.4181415 2.5801053 17.783655
1.7552315 1.4239503 2.5780222 12.134325
2.2360268 1.4659089 2.7092514 21.575499
2.6791673 1.4134305 2.6637695 20.023197
15.422161 1.4079397 2.6057119 42.289814
15.646976 1.3099197 2.612015 58
16.96867 1.3437506 2.4660704 21
17.36433 1.2755909 2.5309706 32.8125
-1.2267637 1.7801727 2.42291 13.958333
-0.98329043 1.7600749 2.4741862 7.1799397
-0.5772962 1.8319907 2.4816751 7.508357
-0.223335 1.8238744 2.4739676 9.5220537
0.19046436 1.7581596 2.4775798 10.591758
0.59442198 1.7784925 2.4862258 22.772755
0.97687572 1.843222 2.5064988 15.235364
1.3505342 1.8235387 2.6253247 11.168724
1.7487259 1.8274708 2.5477185 28.474415
2.2321589 1.8024526 2.5841033 25.883389
2.6111171 1.8169101 2.664573 12.651552
3.0676813 1.7895188 2.7716138 16.642857
15.454257 1.7464075 2.5755172 64.216667
15.751183 1.7710767 2.5262103 57.625
17.089279 1.8130217 2.5925992 39.25
-1.2737887 2.1960466 2.4010019 20
-0.84253156 2.2081881 2.405184 9
-0.6169095 2.1549039 2.4431849 7.25
-0.14305052 2.1812716 2.453912 7.8204551
0.21140201 2.1269636 2.4935637 11.340872
0.59339297 2.1975036 2.4901206 8.9565029
1.0161287 2.2128928 2.5109828 9.3246431
1.3649975 2.2178569 2.5737991 18.179317
1.865528 2.2492757 2.5560672 40.984005
2.2086556 2.2624109 2.5568445 27.734209
2.6625762 2.1378314 2.531723 21.40551
2.9609849 2.1598146 2.5822709 16.798859
3.4049222 2.1916575 2.7265942 25.254332
3.7612674 2.2387438 2.7301323 20.237251
4.0370388 2.352967 2.7926929 12.770211
7.2640176 2.3289015 2.4160514 3
17.099159 2.2127268 2.6183054 45.865742
-0.4248603 2.6062632 2.4024348 8
-0.14188649 2.5664713 2.4103155 10.414815
0.2546986 2.6182916 2.484133 10.301359
0.63966906 2.645165 2.4722607 12.157067
1.0184106 2.6294014 2.4797392 12.564366
1.3502141 2.5355377 2.4833615 22.131866
1.7441608 2.5663869 2.5170307 25.323811
2.2281289 2.5805461 2.4618962 21.564993
2.6049523 2.6075084 2.4710467 35.077679
2.9687724 2.5112309 2.5687683 27.533749
3.5284057 2.5184834 2.5757732 27.799948
3.7437317 2.5832803 2.7111902 16.404842
4.1793804 2.6054354 2.7177417 25.994329
4.52632 2.736505 2.7454464 20.732956
17.037817 2.6101036 2.5837791 50.997776
17.298527 2.5649254 2.5644355 15.75
-0.080574684 3.0452564 2.4324837 10.176917
0.20502435 2.9931176 2.4796035 9.8158236
0.61315477 3.0105865 2.4494398 10.488544
1.0723693 3.0388141 2.5244155 10.321588
1.359912 3.0555246 2.4836698 24.579233
1.8378434 3.0050223 2.5499167 18.486837
2.0892961 2.9768589 2.6270466 9.458333
2.9291854 2.9483762 2.5642743 15.093232
4.2854743 2.9442759 2.6641369 14.188479
4.5943475 2.9961724 2.6823597 18.413433
4.9949217 3.0398593 2.7116685 13.181395
5.3456869 3.1232431 2.7159615 12.229762
16.957878 2.9397249 2.5801954 51.097221
17.384985 2.8454027 2.5312028 16
-0.87445951 3.5387146 2.4016378 8.5
-0.46446142 3.5710387 2.4014044 9
-0.17559625 3.4474182 2.451031 8.6600695
0.22698271 3.4452801 2.4768651 8.1848841
0.60460103 3.4441838 2.4478369 8.5986204
1.0368948 3.4042547 2.5638428 15.440431
1.4135655 3.4571762 2.5657525 13.14801
1.8047187 3.4002869 2.5409207 15.437103
2.0401201 3.4932652 2.5869315 12.708651
3.4779959 3.4500942 2.5597484 10
3.6569159 3.5660477 2.7460485 23.125
4.7891421 3.2654464 2.6452038 10.735068
5.0503588 3.3524978 2.6402109 15.698479
5.4046187 3.3502231 2.6673734 14.749162
5.7919798 3.4715614 2.6789942 12.456018
6.1135006 3.5721095 2.6579018 9.9375
16.743778 3.3630509 2.4858086 59
16.858961 3.3476958 2.6057734 54.666664
-1.6306813 3.9631991 2.4144373 15
-0.98324013 3.961997 2.404191 8.125
-0.46731168 3.7705498 2.4390023 8.9825916
-0.20847242 3.8153665 2.4313281 9.0403442
0.20616011 3.7799106 2.4391534 8.4138784
0.60980135 3.8237474 2.4893701 8.4857512
1.0141712 3.7886608 2.5569544 10.594117
1.3815607 3.766516 2.6535084 8.1347227
1.8966551 3.792335 2.5204155 11.586111
2.1626949 3.8376236 2.6758533 9.3621912
2.5551918 3.7824893 2.7015164 34.75
3.728641 3.9157305 2.6430588 19.085022
5.4227123 3.6265805 2.6207936 15.709629
5.8311448 3.802845 2.6012847 13.876395
6.2328153 3.8391638 2.6391544 12.828785
6.5467143 3.888056 2.6783388 11.20119
15.059445 3.6912293 2.52302 43.75
15.619498 3.9870708 2.6511855 76
17.632597 3.8020952 2.5066824 16.375
-1.6004766 4.0046344 2.4020171 11
-1.3171653 4.1517019 2.4032831 8.583333
-0.94951373 4.2310557 2.4403389 8.7793036
-0.54743755 4.1783552 2.4486697 9.3799896
-0.16608636 4.1926188 2.428786 9.2526798
0.17300595 4.2538452 2.4110651 7.8911109
0.63386667 4.1787143 2.4467099 8.3249216
1.0082709 4.1379576 2.540195 9.1725302
1.4021782 4.1375365 2.6047914 11.206578
1.8138764 4.1729245 2.5001531 7.6708331
2.1669321 4.2264566 2.6694388 8.2613487
2.5649688 4.0976 2.5666928 12.331249
3.8107865 4.2184529 2.53865 30.958334
6.2593379 4.158134 2.6143944 15.831482
6.6123281 4.1561365 2.6238883 15.976315
7.016798 4.2982459 2.5951002 11.533333
7.4586582 4.328361 2.5887716 10
14.778739 4.1761141 2.4130914 59
14.864128 4.1920042 2.4726517 21.042223
17.73056 4.1619625 2.6279638 15
-2.4624815 4.7790356 2.7112865 8.333333
-2.1921921 4.751174 2.6960793 8.3125
-1.2780423 4.6999369 2.4489312 4.2222223
-0.96802503 4.6196156 2.4641478 8.2829361
-0.63738668 4.5573845 2.4516952 9.3672838
-0.19941099 4.6358132 2.4218802 9.0585613
0.11065459 4.6367416 2.4114151 8.3211117
0.57814932 4.6245446 2.4059386 8.8011904
0.8946501 4.5411839 2.5869327 7.7380953
1.8362312 4.4506569 2.6761739 8
2.2456748 4.4757538 2.407912 9.1904755
2.7181213 4.6190968 2.6286864 8.666667
3.1466446 4.4608884 2.607841 8
3.9416072 4.5613384 2.5510287 14.933824
4.0245953 4.7297168 2.5162466 21.295139
6.7090139 4.4164858 2.6283536 15.297619
7.0529952 4.5128913 2.5828235 12.559999
7.4140739 4.5202703 2.5787351 10.230208
7.7556419 4.701158 2.5613081 10.1875
14.767205 4.6785488 2.6490872 44.25
14.842681 4.4606786 2.4814231 114.5
15.2806 4.7440114 2.738894 24
17.84614 4.5825138 2.6333799 14.083333
-3.3266435 5.1452026 2.7452836 8
-2.9720397 5.0840569 2.7330129 8.6000004
-2.6003127 4.9770832 2.7131071 8.625
-2.2923522 5.050415 2.6841245 8.875
-1.3143772 5.0172443 2.4627943 8.9766674
-0.98825294 4.9901581 2.4701271 9.3475752
-0.5857687 4.9791937 2.4450996 9.2484131
-0.13468398 5.0039892 2.4191053 9.0680981
0.22573781 4.9269714 2.4091063 8.9305553
0.54760212 4.9417262 2.4394627 8.5357151
0.87099373 4.9798927 2.5535994 7.03125
2.7319934 4.9675636 2.6666036 9
2.8071468 5.0869808 2.6087046 9
4.1321363 5.0881519 2.4453752 14.4876
7.4985733 4.8366461 2.5656826 15.625
7.8731174 5.0461183 2.5718842 9.083333
8.2468309 4.9917626 2.5418448 9.4833336
8.6328707 5.1917038 2.5218272 6
14.731002 5.0397553 2.6608558 46.066666
17.969439 5.0939617 2.5296712 16
-4.0441604 5.4805527 2.7614229 9
-3.7967386 5.4518318 2.7617452 8.9333334
-3.3453875 5.4575686 2.7435384 9
-2.9939899 5.4108853 2.7255735 12.863095
-2.6135149 5.4162445 2.704035 17.145834
-2.0433552 5.4622459 2.4204152 4
-1.6804485 5.3939929 2.4682987 4.2555556
-1.3421158 5.3857021 2.4942253 9.5134916
-0.95201993 5.3622565 2.4667008 9.3281145
-0.56882745 5.3098593 2.4312921 9.202076
-0.20071781 5.4491453 2.4165213 9
0.21835282 5.4005589 2.4046369 9
0.60600734 5.4008474 2.4362752 8.28125
7.9826345 5.2168407 2.565872 6.3333335
8.2321234 5.3131142 2.5391121 7.5
8.5662746 5.3465896 2.469522 9
8.9292097 5.4328752 2.6380806 8.75
14.635304 5.4490528 2.6628346 51.514584
18.071238 5.4078217 2.6505256 13.75
-4.1789417 5.7754803 2.7764997 8.75
-3.8131642 5.7763677 2.7638762 13.28889
-3.3800154 5.8265209 2.7426925 16.333334
-2.9879289 5.8465552 2.7349167 13.78889
-2.7357855 5.7469711 2.7199023 14
-2.065666 5.7301168 2.464391 4
-1.7604668 5.82935 2.4996271 7.325635
-1.377444 5.8030934 2.4725833 9.271759
-0.97851813 5.7874465 2.4470215 9.7547226
-0.55398148 5.749969 2.4199295 9.2147427
-0.16804749 5.8768516 2.4234712 9.208333
0.17588936 5.7583132 2.4058714 9.083333
0.481359 5.7643356 2.443614 8.166667
9.3649979 5.6357946 2.5008736 6
9.6504917 5.9947577 2.4868181 8
14.571177 5.7742648 2.6420977 55.700001
18.124899 5.6765404 2.6081612 13
-4.6287093 6.1554155 2.7992775 12.444444
-4.2322984 6.1718707 2.7815678 17.291668
-3.9203401 6.1018348 2.7639513 23.5
-3.3968062 6.2055216 2.7440608 16.566668
-3.0509658 6.1531591 2.7276247 9.5
-2.4147995 6.3410988 2.4122894 9
-2.167031 6.1405101 2.4751594 5.34375
-1.7565405 6.166945 2.4936635 9.9903698
-1.3860044 6.2188406 2.4703832 9.4324999
-0.90881032 6.1588421 2.4326708 9.3285713
-0.62886119 6.2631898 2.418299 9.2027769
-0.28123507 6.2866282 2.4133005 9.333334
0.24717401 6.1348128 2.4086068 9
0.54897755 6.1869159 2.4838428 7.5
14.49653 6.1969261 2.6421099 50.625
18.27524 6.1913137 2.5937281 14
-4.1372275 6.5720725 2.7877572 22
-3.8206606 6.713841 2.7646434 20
-3.3810549 6.627624 2.7369437 15.5625
-3.0811744 6.4353566 2.7145562 4
-2.1763055 6.6114674 2.4943826 17.195768
-1.8604281 6.5923519 2.4834688 11.321428
-1.4301815 6.5830779 2.4631402 10.586111
-0.98117954 6.5736847 2.4253852 9.4083338
-0.72193259 6.6402922 2.4264121 9.5496035
-0.39879584 6.4489665 2.4090586 9.333333
0.17817353 6.5449057 2.4053044 8.875
0.57190371 6.4851789 2.5641212 7
10.626398 6.4862051 2.437403 9
14.396585 6.7282639 2.7292297 43.950001
14.448736 6.5113287 2.5308647 42.375
18.382627 6.4073176 2.7994416 12
18.472075 6.7516327 2.556705 13.833333
-4.216413 6.9323454 2.7830622 21.125
-3.9291263 6.9152789 2.7653244 17.6
-3.3908939 6.891892 2.757015 11.5
-2.5051346 7.1308479 2.4682627 16.333334
-2.2529848 6.9321151 2.5059981 14.19
-1.7978007 7.0084734 2.47296 11.930555
-1.3283639 7.01122 2.4332571 8.7770834
-0.90786785 7.0521088 2.4463253 9.6833334
-0.59226871 6.8646598 2.4209628 10.125
0.13349535 6.8470211 2.4040945 9
14.36402 7.0302792 2.7142553 34.800003
14.416407 6.8536806 2.5253096 31.125
18.604673 7.1901083 2.6112649 13.666667
-6.6065221 7.3039722 2.7754686 41.666664
-6.2793984 7.4945989 2.6576948 73.833328
-4.1203332 7.4434395 2.7679214 12.833333
-3.7597101 7.2923512 2.7603822 22
-2.630934 7.3624501 2.5039625 16.111111
-2.2312543 7.3386269 2.479986 12.45
-1.8968092 7.3756065 2.4623561 9.764286
-1.4426916 7.4110718 2.4458899 10.621668
-0.95482689 7.3238182 2.4239159 9.9603186
-0.64544749 7.2391696 2.4133096 10
14.313337 7.2437816 2.7121873 29
14.468472 7.2348385 2.6018815 27
18.638922 7.3894 2.568522 12.666667
-5.7554226 7.8148942 2.6227007 67.256485
-4.4440103 7.6629696 2.7611289 7
-4.2210722 7.7046013 2.7804954 19
-3.9290993 7.8113713 2.768574 17
-2.9306388 7.9622059 2.4938376 9
-2.699656 7.7657609 2.4952273 14.410001
-2.3010778 7.8420138 2.468173 9
-1.8380347 7.7300391 2.4529593 10.666667
-1.3723733 7.8857179 2.4401534 13.55
-1.132481 7.7541447 2.4446723 10.75
14.217655 7.9410801 2.678556 11.5
18.734358 7.7288828 2.4565859 13.5
18.813284 7.9434061 2.4536517 13
-10.056805 8.1520176 2.7976775 9
-5.4494348 8.0121832 2.6102242 56.416664
-5.1860833 8.196497 2.5772326 16.264286
-4.7538595 8.3809252 2.6005378 70.125
-3.219378 8.1930943 2.5694969 13
-3.0792878 8.1841707 2.4888971 14.166667
-2.6606357 8.1368666 2.5041606 13.277779
-2.1868925 8.1507988 2.4697056 11.6875
-1.4717025 8.2476749 2.4639421 15.495833
-0.099404812 8.3031902 2.4220324 5
14.238898 8.2492628 2.6289685 10.666667
14.424351 8.0508471 2.4654191 6.5
18.879229 8.2826252 2.4584541 12
-4.5272169 8.5341988 2.6245899 44.78241
-4.38731 8.6423502 2.6137183 29.25
-3.3884673 8.6945438 2.5480497 11.5
-3.0262225 8.5644417 2.5212421 15.972222
-2.7193551 8.5848789 2.4918852 12.85
-2.2033463 8.50984 2.4785886 14.333333
-1.8076605 8.5836687 2.4834619 15.3
-1.4957085 8.5692558 2.5126667 16
-0.10710001 8.5550041 2.4054813 5
14.154878 8.6680965 2.613045 9.5
18.977844 8.4822483 2.5150447 9.5
-3.7525961 8.9397726 2.533797 20.333334
-3.4535849 8.9239006 2.5134232 15.916667
-3.089566 9.0176516 2.5191386 13.791667
-2.7799141 8.9735909 2.5201769 13.722221
-2.1544282 8.9664764 2.4850101 16.799999
-1.813593 8.9710512 2.4873006 15.111112
-0.088842809 8.9392414 2.4111609 7.5
13.993997 9.0102329 2.7472413 10.125
14.025138 8.9122667 2.6089764 8.625
-4.0229282 9.5937939 2.5514288 22
-3.8308475 9.3359003 2.5517364 20
-3.5442536 9.4738121 2.5489848 17.958334
-3.1643782 9.32481 2.5127816 9.25
-2.5321085 9.2969179 2.4908288 17.625
-2.1036665 9.401823 2.4796453 16.5
-1.9993942 9.4904099 2.4541042 19
-0.074407578 9.493084 2.4424686 3.5
13.936333 9.4563761 2.5937424 8.9375
-4.133316 9.8532238 2.555105 24.100002
-3.8019621 9.8026667 2.5776618 23.833334
-3.4270282 9.7997799 2.5377975 15.633333
-2.9905839 9.8624725 2.5552504 13
-2.5165136 9.7852564 2.5079236 19.966667
-2.2410836 9.7053995 2.5200448 17
-0.17412424 9.9612122 2.489305 3
13.886486 9.7646694 2.6160445 8.4513893
-4.5235753 10.175968 2.5525575 23.5
-4.2105637 10.166968 2.5443773 18.5625
-3.8016212 10.199841 2.5480926 17.9
-3.3685896 10.270549 2.5238492 16.833334
-3.0762935 10.168501 2.5366201 17.541668
-2.647634 10.116531 2.5341268 19.25
-2.3169522 10.039192 2.4930725 24.25
-0.85013902 10.114298 2.403861 21
-0.29685664 10.250052 2.4735324 4.75
13.801357 10.273013 2.6168497 9
19.546793 10.323322 2.4088457 15
-4.8231897 10.498495 2.4210367 15
-4.7061615 10.616096 2.5665126 23.25
-4.2312393 10.60717 2.5831761 22.166666
-3.8404634 10.519944 2.5433216 31.333334
-3.3890631 10.663945 2.5334802 17.958334
-2.9567089 10.597789 2.5170741 21.9
-2.6793389 10.609667 2.4841976 23.9
-0.42452669 10.603987 2.4402807 7
13.711828 10.629224 2.631803 9.5666676
-4.9641972 11.056004 2.5938284 21.333334
-4.5471854 11.006325 2.5819025 22
-4.1354489 11.023911 2.5828483 20.833334
-3.9491105 10.985297 2.5613432 34.625
-3.4911647 10.969347 2.5258031 19.733334
-3.1064391 10.941335 2.5079775 18.9
-0.2995286 11.148026 2.6550426 6.75
13.599449 11.109057 2.7624693 11
13.63869 11.015738 2.6975923 9.520834
-5.345747 11.426541 2.5405753 22.666666
-5.0040007 11.415377 2.6284819 21.9
-4.5267472 11.370913 2.6076775 24.700001
-4.1188087 11.491482 2.5485806 31.4375
-3.745353 11.431675 2.5547192 23
-3.3242497 11.399835 2.5126121 22.875
-3.1363707 11.528943 2.4270597 23.5
13.552558 11.469284 2.6484673 10.527778
-5.6038413 11.776064 2.5327947 53.5
-5.4502482 11.826268 2.5991068 28
-5.0663996 11.806937 2.6240644 23.5
-4.586617 11.724131 2.6050277 32.125
-4.1321545 11.893169 2.5658813 24
-3.7341664 11.748923 2.5242159 21
-3.3591967 11.776362 2.4574041 17.25
2.0778744 11.891215 2.5093503 5
13.506057 11.822088 2.6104441 9.583333
-5.7106361 12.244465 2.6361465 30.25
-5.3078122 12.13652 2.6415415 25.5
-5.1128869 12.198591 2.5606947 40.75
-4.6720147 12.216006 2.6108172 43.357143
-4.1936855 12.222783 2.5849771 27.333334
-3.752013 12.196982 2.5320051 23.333334
-3.2676706 12.140841 2.4674416 7.5
2.1111379 12.279531 2.5889459 3
13.456267 12.170194 2.6067059 8.4444447
-6.1642585 12.664598 2.4560821 44.0625
-5.8395882 12.646317 2.6326861 37.400002
-5.3525453 12.563751 2.6440947 40
-5.061975 12.54917 2.5343509 74.208336
-4.5681195 12.617619 2.626833 25.25
-4.2144356 12.527953 2.5437982 24.5
-1.003818 12.765288 2.4047935 17
13.359985 12.552368 2.6956646 6.0555558
13.605073 12.479555 2.4232147 14
-5.8883872 12.911098 2.5970325 52.828571
-5.5594382 12.983954 2.5670855 55.583332
-4.9677982 12.944771 2.5848258 47.375
-4.5795875 13.067235 2.5974483 43.333332
-4.3658152 13.069983 2.5427368 28
13.331478 13.143442 2.6756508 6.75
13.852785 13.114633 2.6113081 6.4166665
14.196175 13.119428 2.5403254 6
-5.2065563 13.218697 2.5394075 50
-4.9876771 13.439322 2.5330017 47.944447
-4.5050664 13.467483 2.5591631 32.75
-4.1751986 13.458419 2.5576565 55.5
13.192907 13.557857 2.5984373 8.083334
13.327591 13.400177 2.6376655 6.0500002
-4.5299034 13.796613 2.4944499 60.253967
-4.2541056 13.910339 2.5160892 32.25
12.086149 13.831501 2.4637151 7
13.127381 13.813369 2.6983662 10.388889
13.583153 13.97541 2.7421327 9
13.626852 13.685754 2.5362175 8.75
14.187076 13.689414 2.6087983 7.6666665
14.52633 13.796744 2.5068576 8.666667
-4.1644745 14.085377 2.4030299 26.75
-3.9906898 14.139746 2.4503453 19.5
-0.83055449 14.263411 2.4250803 5
13.051906 14.172673 2.655091 12.138888
12.968818 14.609651 2.6983805 12.416667
-0.91891718 15.043003 2.4254391 5
12.91334 15.017444 2.6018746 11.833334
-0.99186707 15.535043 2.4361703 5
12.87343 15.335286 2.6485868 10.4375
12.889201 15.922029 2.5954804 10
13.298244 15.926834 2.7208853 10
12.686789 16.339706 2.699748 10.833334
12.868137 16.009504 2.5737374 9
13.266856 16.196611 2.4777362 10.611111
12.627417 16.635447 2.5887036 15.25
13.222087 16.629114 2.6173105 10
12.530125 16.987183 2.6545351 14.916667
12.48801 17.242456 2.7516923 12
28.3528 -17.625376 2.9836838 39
28.33094 -17.281191 2.8245711 38
28.388451 -16.851887 3.1324749 50
23.894459 -16.439697 3.0455761 15
28.483433 -16.723873 3.0191503 73.666672
21.166042 -16.355108 2.8954391 29.5
21.383764 -16.187807 3.1788883 14
22.208002 -16.270367 2.9820693 25.25
22.554731 -16.08157 2.9367239 29.833334
23.8057 -16.187277 2.9334469 20.666666
22.747215 -15.944703 3.0016086 23.5
22.908327 -15.980191 3.0906587 18
23.721865 -15.822372 3.0091109 36.5
23.74938 -15.418289 2.9260461 41.666668
23.719265 -15.014599 3.0731409 44.125
23.795795 -14.777893 3.1654377 54
25.904589 -13.347379 2.9766662 47.333332
25.804035 -13.048015 2.923667 59.75
26.028461 -13.08124 3.1181865 54
7.8072844 -12.573463 3.0077333 109
25.638168 -12.559204 2.8626668 43
36.576836 -12.642938 2.8871164 78
7.4268513 -12.227188 2.9242241 130
9.0200338 -12.080019 2.8562491 65
9.3476048 -12.260777 2.8509612 59.66111
36.602348 -12.254847 2.9996943 82
36.992817 -12.135644 2.8008866 45
37.219414 -12.050294 2.9406872 62
7.4046249 -11.751615 3.1041479 63.75
7.7570033 -11.782936 2.861259 109
9.8001556 -11.956617 2.8005309 59.916668
10.173574 -11.708542 2.9936833 46.325001
36.710583 -11.887631 3.0769529 71.333336
37.070747 -11.64546 2.9131823 57
37.304787 -11.73666 2.8740323 57
7.7687974 -11.339464 3.0941262 59.25
10.368235 -11.573538 3.1731589 47
37.120575 -11.481833 2.8601925 64
37.292 -11.391324 2.802012 39.5
7.9148331 -10.981742 2.8815434 47.375
37.318333 -10.9221 3.1053481 34
25.793167 -10.455114 2.9384184 34.5
37.240097 -10.576329 3.0281079 40
25.869398 -10.187073 2.9262233 32.875
26.084766 -10.129104 2.8940923 22.333334
37.236328 -10.247549 2.9136136 45.5
25.942089 -9.8905153 2.8202569 32
26.161058 -9.9021635 3.004055 23.5
9.7481661 -9.2195196 2.862613 7.3333335
11.073174 -9.2956066 2.9395704 29.666666
36.737984 -9.3388634 2.9774852 45
6.6115589 -8.9248953 2.8601837 9
7.1088867 -9.1755466 2.9764805 14
10.767837 -9.1925087 2.9678905 44
11.121834 -9.1501007 3.1257718 22.333334
36.840073 -8.9526367 3.056788 71
1.5608482 -8.4332037 3.0203104 16
6.3024392 -8.4015265 2.8918025 12
6.5533032 -8.6054802 2.8943851 18
1.4264851 -8.2609072 3.0490091 8.333333
12.212013 -8.2422028 3.1723399 49.375
12.452782 -8.0680952 2.9407308 58.666668
1.3866252 -7.9454203 3.1411524 4
5.8781252 -7.6440387 2.9068069 13.833334
6.0843549 -7.9528141 2.892791 14.333333
12.718944 -7.8248672 2.9926217 55.777782
12.90443 -7.7384744 3.0888066 37.5
1.3469958 -7.4795384 2.9761543 4.6666665
5.504425 -7.2590294 2.9217956 7
5.7663107 -7.3853173 2.9679039 11.5
7.0478702 -7.4320092 3.1796896 8
7.2563548 -7.3338108 3.0895689 5
13.036126 -7.4214797 2.9727538 73.527779
13.38746 -7.389225 3.0348215 43.452084
13.703159 -7.2262664 3.030838 39.6875
17.16757 -7.395865 2.9658563 25
17.25407 -7.2704144 3.1686523 20
1.0849786 -6.900022 3.0626514 3.7833335
1.2541146 -7.0249243 2.9837582 8.4766665
5.4834919 -7.0435262 2.9395578 15.541667
5.72718 -7.1025796 3.0222158 16.5
13.446202 -7.1083503 2.8725791 79
13.892681 -7.0359974 2.9793856 37.604164
14.22349 -6.931654 3.0141981 40.666668
17.120428 -6.9566092 2.9866247 36.618053
1.0885764 -6.494348 3.0500596 3.2222223
5.144484 -6.5603056 2.943624 11.333333
5.3611317 -6.7282176 3.0193372 11.166667
14.375303 -6.7238789 3.0342739 36.166664
14.641905 -6.6229954 2.9645319 40.754166
14.942956 -6.4399281 2.893569 39.875
17.116985 -6.7141218 2.8749251 32
17.405975 -6.6006956 2.9646001 30.85
17.660316 -6.6138434 3.0237048 14
1.0580579 -6.175405 3.0736682 3.5833335
5.0295353 -6.3319435 2.9641213 10.325
6.7754874 -6.0217266 3.121918 8
6.9043446 -6.0419159 2.9766529 12.305554
15.130974 -6.2875514 2.9987404 37.416668
15.377481 -6.1430702 2.9190171 37.310001
0.9948253 -5.7744498 3.0105886 6.4027777
4.715456 -5.753912 2.9354858 14.916666
4.8836479 -5.9708872 2.9911165 12.608334
6.894793 -5.8756399 2.9740586 7.5406747
15.691611 -5.938652 2.9433463 36.5
16.032627 -5.7056026 2.9705112 35.650002
25.813757 -5.7226181 3.0736015 56.5
30.606016 -5.7605686 2.8795872 44.333332
0.92174447 -5.4820466 3.0577588 6.379251
1.5521619 -5.2453651 3.0460577 10.583333
4.5390053 -5.3548193 2.9971979 12.729167
6.7356262 -5.2744679 3.0300617 3.5555556
16.320257 -5.5059333 2.973428 34.555553
16.643641 -5.3629823 2.9176738 26
16.878393 -5.2190313 2.9716685 35
25.750832 -5.4877 3.0127552 74
30.703161 -5.4856038 2.9000566 44
0.78316402 -4.8383837 3.1513398 4.6666665
0.81551331 -4.9511447 3.097805 3.9989417
1.3532497 -4.9944658 3.0864654 21.269842
1.8756604 -5.0688987 3.0167599 8
2.1502578 -4.8405313 3.021831 14.458334
4.2211599 -4.8262286 2.959373 15.5
6.7057295 -4.9517317 2.9648457 4.5583334
16.756535 -5.1852508 3.0684111 33.25
17.098179 -5.0530939 2.9958644 20.5
17.384327 -4.858942 2.9962857 9
25.814495 -5.0505323 2.9837079 41.099998
0.73448974 -4.5494285 3.0528343 4.3314815
1.2475945 -4.5958152 3.0923338 25
2.2812426 -4.6829667 3.0632999 16.573704
2.5829365 -4.5940795 2.9636405 7.0041671
2.9553413 -4.4685788 3.0176907 5.5
4.1185384 -4.6315417 3.0350435 14
6.6277065 -4.4856939 3.0000162 7.9311328
17.442501 -4.7821941 3.0234728 17
17.814827 -4.6199069 2.9887366 9.5
18.058344 -4.4900227 2.8561215 11
27.761511 -4.4410424 2.959228 30
0.68019855 -4.139925 3.0658786 9.2318878
0.95740521 -4.0206656 2.9663901 5.1666665
1.7256372 -4.1471405 3.1313703 43
2.6020203 -4.2957606 3.1316757 21.406275
2.9608428 -4.1944132 3.0253084 19.3405
3.9383197 -4.1453209 2.9708042 10.75
6.5972872 -4.2414212 3.0467336 4.1208334
7.0161591 -4.1579008 3.0195098 5.5
18.221855 -4.3280721 2.8804133 10.638889
18.444784 -4.2050691 2.8413594 9
27.831476 -4.1800399 3.0280027 32
28.397387 -4.0128365 3.078793 31
0.60385203 -3.8341615 3.0576992 4.5972223
1.5219178 -3.7617576 3.0139587 16.007946
1.6236039 -3.9565918 3.1519973 28.82313
3.1115897 -3.9345336 3.0479941 23.922642
3.4184284 -3.6992819 3.1106167 22.353968
3.7074823 -3.8382609 2.9261558 10.25
6.5342898 -3.748781 3.0301735 5.5555553
18.797028 -3.8297334 2.8592408 9
18.973408 -3.7278953 2.8074896 8.5
19.425358 -3.6096113 2.8099885 10
28.859476 -3.9197309 3.1123638 38
29.28196 -3.8160901 3.1417432 54
29.702925 -3.6245666 3.1632819 42
6.2955546 -3.2487712 3.0684412 9.4902782
6.5985327 -3.349144 3.1611466 5.833333
19.428246 -3.436095 2.825671 9.25
19.656734 -3.2829344 2.9176695 9
31.862938 -3.4825678 2.8605924 46
1.9773476 -2.8036191 2.9569578 17.952778
2.2038906 -2.860667 2.9600525 9.135417
6.3310528 -3.0531425 2.9854319 8.2021294
6.5109587 -3.0006537 2.9588902 4.6290479
2.1861715 -2.6129229 2.9488809 16.358288
2.4793236 -2.6576817 3.0724297 11.649433
6.2850499 -2.5266824 3.0772414 4.9532914
6.4923477 -2.5136871 2.9490595 5.8125
21.370817 -2.5599463 3.1656067 12
26.398903 -2.6681762 3.1523435 35
26.522697 -2.6042445 3.1444921 37.5
2.2365808 -2.1381688 2.9991498 17.850004
6.2712946 -2.2197711 3.1030529 5.3652005
6.4345241 -2.1179209 3.1841879 4
21.447845 -2.245297 2.948251 14.333334
26.374725 -2.0170519 3.1021359 46
26.464643 -2.3039904 3.1251831 48.666664
-6.4899373 -1.8134748 3.0330741 13.805556
0.37812412 -1.719864 2.8297865 22
1.9630299 -1.8438765 2.9257329 12.314719
2.1901517 -1.7670225 3.0293086 18.896368
6.1446137 -1.8077463 2.9764957 16.95046
6.5801086 -1.9013847 3.0492241 108.66666
26.411736 -1.8434045 3.0850117 42
-7.9042735 -1.4433507 2.9519992 47.875
0.27705258 -1.2676502 2.9081409 10
1.1492414 -1.2247897 2.892863 9
1.4150898 -1.2424815 2.9738314 11
